# .PCD v0.7 - Point Cloud Data file format
VERSION 0.7
FIELDS x y z rgb
SIZE 4 4 4 4
TYPE F F F F
COUNT 1 1 1 1
WIDTH 927
HEIGHT 1
VIEWPOINT 0 0 0 1 0 0 0
POINTS 927
DATA ascii
149.2973174 260.5741759 61.80909891 7.842078188e-39
159.7960058 210.411057 48.52932667 7.840323762e-39
163.1036935 203.3944719 46.34085381 1.512556378e-38
133.8078487 349.1612717 85.61325636 5.443960456e-39
133.8078487 349.1612717 85.61325636 5.443960456e-39
160.3476323 223.4677474 51.77615578 1.954720273e-38
160.3476323 223.4677474 51.77615578 1.954720273e-38
157.4275155 237.6816199 55.67336435 1.779876621e-38
141.8033136 316.4033806 76.66265273 5.907346036e-39
165.4288715 201.2889759 45.75646094 1.401885608e-38
91.37369422 573.3757972 144.4451157 1.070125534e-38
144.5505144 310.8020563 75.14257885 6.642493835e-39
144.5505144 310.8020563 75.14257885 6.642493835e-39
155.5158432 258.6692647 61.13541585 1.540102262e-38
155.5158432 258.6692647 61.13541585 1.540102262e-38
157.7594991 255.7015308 60.21186789 6.829041693e-39
96.86475328 559.8754717 140.5841267 8.764073723e-39
162.6142937 233.2329711 54.25980749 8.856890128e-39
155.3093619 271.6960608 64.6481654 1.742884163e-38
164.3394963 228.0188772 52.70747012 1.107062501e-38
164.9627542 230.7316557 53.52206411 1.01480143e-38
159.8588286 262.483616 61.87788797 1.660015155e-38
159.8588286 262.483616 61.87788797 1.660015155e-38
127.9461294 420.2921219 104.0137717 3.970265308e-39
167.9311926 224.9413776 51.73939117 1.752142962e-38
167.9311926 224.9413776 51.73939117 1.752142962e-38
171.3147889 209.3983806 47.51624572 8.210534205e-39
171.1361631 212.0995906 48.33193 1.208275486e-38
170.6550052 220.4445114 50.72276171 9.50020103e-39
164.5316723 287.2773581 56.43854783 8.949398248e-39
154.0767129 308.4818017 74.18797003 1.291425454e-38
154.0767129 308.4818017 74.18797003 1.291425454e-38
139.1509997 384.2605151 94.41810556 8.303820045e-39
155.357782 310.1361182 74.64328965 1.38364939e-38
155.357782 310.1361182 74.64328965 1.38364939e-38
172.8745855 226.3941699 51.87445762 8.396309948e-39
161.632129 283.0293805 67.09114283 8.305187712e-39
171.1030901 238.8038715 55.21843955 9.77641097e-39
161.8714561 285.1886267 67.66181631 7.841701239e-39
104.7680003 567.4321683 142.8014468 4.618154251e-39
156.980225 313.9436084 75.40632533 1.448216319e-38
154.7243033 328.6025548 79.35032354 1.724443075e-38
184.9715432 186.2236821 41.07906635 1.208923867e-38
135.2519782 436.7200606 107.6142016 9.136093242e-39
177.7917393 228.0188179 52.06578124 1.660027206e-38
183.13649 202.4105742 45.16004004 2.010264521e-38
174.5492555 245.1691006 56.64683493 1.503538602e-38
176.9569678 236.1411988 54.19961903 1.715085064e-38
183.375341 207.4328245 46.46608784 7.933582978e-39
220.3702173 164.3146118 -4.948664154 1.430006305e-38
196.6743561 492.4491523 12.13347853 9.682400659e-39
200.4631713 130.7836638 25.90122854 1.384087296e-38
196.0381191 153.9970862 31.98447823 2.258901953e-38
196.0381191 153.9970862 31.98447823 2.258901953e-38
171.8678364 272.4572565 63.95829925 8.121208434e-39
171.8678364 272.4572565 63.95829925 8.121208434e-39
161.2364422 325.703011 78.27531335 9.411843556e-39
173.6629603 266.2922285 62.17318534 1.59554954e-38
158.2964248 342.3438039 82.6107893 7.659089628e-39
158.2964248 342.3438039 82.6107893 7.659089628e-39
171.3598409 278.683256 65.49370989 1.503570131e-38
171.3598409 278.683256 65.49370989 1.503570131e-38
169.0664244 292.6492662 69.27011838 1.816675419e-38
169.0664244 292.6492662 69.27011838 1.816675419e-38
343.2290518 330.984761 -168.6259854 2.074619854e-38
168.3692408 302.6708093 71.83133958 1.19912809e-38
198.7475121 170.3716429 31.40921648 6.824303903e-39
198.7475121 170.3716429 31.40921648 6.824303903e-39
143.5059924 427.9222774 105.4387255 9.778220046e-39
183.0956603 238.5207739 54.49325212 1.696966975e-38
173.9762884 285.8369415 67.30763222 1.208346112e-38
182.7297059 245.0614178 56.18418023 8.211966332e-39
182.7297059 245.0614178 56.18418023 8.211966332e-39
145.3488766 432.5799894 106.3689432 3.971693231e-39
165.1498352 334.4544409 80.39469263 1.457329524e-38
142.8736775 446.3773331 110.0193537 3.047566321e-39
170.420361 315.5041018 75.12421805 1.558778067e-38
200.0655136 172.5303544 36.47060665 6.277641958e-39
139.2586845 472.7411163 116.5483899 3.599654094e-39
183.1718937 257.6027044 59.5101555 1.106824981e-38
183.1718937 257.6027044 59.5101555 1.106824981e-38
182.1179152 264.0785075 61.43170089 1.134482409e-38
188.3700831 236.1389562 53.67314208 7.93465357e-39
151.1458652 420.8158219 103.0671709 2.399296224e-39
151.1458652 420.8158219 103.0671709 2.399296224e-39
134.9260584 251.3732605 118.2728295 1.346668143e-38
177.3996897 306.0837298 72.41917523 1.088493615e-38
212.7007173 135.6383675 26.28227246 6.003889895e-39
189.9346169 249.8187846 57.07535725 1.558820387e-38
189.9346169 249.8187846 57.07535725 1.558820387e-38
182.2141054 288.0387939 67.36256768 1.715196327e-38
200.2131888 202.5890163 44.17633561 1.825804318e-38
184.9902393 277.6726796 64.59295584 7.565164796e-39
184.9902393 277.6726796 64.59295584 7.565164796e-39
172.5429632 339.4933856 81.3893267 1.577151052e-38
188.5617758 262.7136188 60.38809193 7.841398558e-39
187.7173993 329.1570806 46.90740943 1.595731569e-38
183.5251157 264.5775343 46.9891486 1.899694085e-38
216.4793484 134.1245564 25.83370828 1.319337778e-38
216.4793484 134.1245564 25.83370828 1.319337778e-38
202.500871 206.3985483 45.02530092 7.842819475e-39
178.5625186 323.2924433 76.54497654 1.494134908e-38
196.8615717 235.0963569 52.89165588 8.58282978e-39
216.8893579 138.2939957 26.86399729 1.328770058e-38
216.8893579 138.2939957 26.86399729 1.328770058e-38
201.4722558 221.1772479 48.90731705 8.671882297e-39
175.450533 349.8836832 83.62288802 1.512573333e-38
174.66816 356.6273951 85.63061119 8.396256698e-39
220.3838165 137.4385641 26.37024913 5.726952681e-39
213.5314933 174.4659703 36.19200974 5.907033547e-39
213.5314933 174.4659703 36.19200974 5.907033547e-39
224.2704473 136.7864351 25.9758648 1.365470766e-38
214.5276585 184.8508733 38.82621528 2.31400283e-38
188.8776288 311.6479856 73.02447248 8.119070053e-39
188.8776288 311.6479856 73.02447248 8.119070053e-39
204.2566642 246.4681402 55.46669638 1.816825638e-38
202.9941628 254.2794935 57.54658741 1.60480918e-38
206.5484402 238.3110681 53.17654027 1.6784966e-38
223.1559857 160.7502475 32.15103615 2.268084662e-38
223.1559857 160.7502475 32.15103615 2.268084662e-38
194.254949 301.9408198 70.3195018 1.576939596e-38
194.254949 301.9408198 70.3195018 1.576939596e-38
200.5458426 273.4632685 62.58434101 1.70601628e-38
159.2202041 475.4428381 116.6988715 1.014302148e-38
201.0335761 273.8148661 62.75306872 1.678427236e-38
161.9585216 465.1485186 113.9456161 3.874075977e-39
216.2589728 209.5358726 45.05626799 1.927576562e-38
230.8964066 139.3512206 26.22856562 1.402241398e-38
230.8964066 139.3512206 26.22856562 1.402241398e-38
197.5309889 300.4807747 69.81700566 1.512789414e-38
193.521459 321.6181585 75.41121349 6.920877189e-39
161.8337384 478.7477818 117.4353494 4.058112709e-39
210.532588 243.5522598 54.30715999 1.042490247e-38
201.2901098 287.7486538 66.38661546 1.56799735e-38
216.7551478 215.5132251 46.58166117 6.462059842e-39
164.0502827 300.8952934 117.4477133 1.383403603e-38
190.1209131 280.4201532 80.35062399 7.288942244e-39
224.3053568 197.6734318 41.38093999 1.254481622e-38
214.3746654 249.2564158 55.44745421 1.706332273e-38
214.3746654 249.2564158 55.44745421 1.706332273e-38
214.3746654 249.2564158 55.44745421 1.706332273e-38
194.5787328 348.5934127 82.45674073 1.521793737e-38
199.8040991 326.6532389 76.44647458 1.567926584e-38
191.9342575 370.117503 87.47494437 6.181874418e-39
206.6187728 297.3489586 68.43644717 8.581791418e-39
206.2240333 289.4499607 67.91515963 9.044193286e-39
194.9851101 357.8694034 84.68796727 1.466438664e-38
223.6631458 222.7124861 48.02366263 1.881586787e-38
224.7360388 216.1816082 48.01586538 1.89999018e-38
209.8695731 293.1294831 67.30463993 1.623388296e-38
169.4586437 492.0862553 120.1891356 1.845018222e-39
168.8830161 498.2066994 121.5569456 7.564077388e-39
214.0626487 292.072891 66.53361897 1.641682948e-38
162.2699411 554.1432074 136.1256238 1.226822652e-38
162.2699411 554.1432074 136.1256238 1.226822652e-38
173.6704049 498.0833316 121.9097557 9.255940694e-40
218.7587818 283.1896562 64.03209374 1.531190845e-38
216.6561382 297.8686587 67.85718672 1.613916499e-38
207.8536037 342.7921462 80.11597293 1.134482268e-38
241.3562781 185.2290632 37.32888594 7.654853503e-39
164.8673477 562.9575105 138.183652 9.87510302e-39
166.5917483 566.0846972 138.8231676 3.974229581e-39
223.0627937 293.3152179 66.37273176 6.830421972e-39
223.0627937 293.3152179 66.37273176 6.830421972e-39
232.6983853 248.0901767 53.94667918 1.226823073e-38
209.2657024 364.223943 85.28396952 1.466654744e-38
213.4686505 347.5868729 80.78783401 8.855906417e-39
222.8277982 302.2440601 68.73006953 8.580631142e-39
224.5766938 294.8757866 66.59597757 6.274751079e-39
226.3287914 287.0448701 64.5743763 7.012300704e-39
171.9623849 569.2444864 139.3451959 5.264957189e-39
214.1920029 362.2584372 84.75836752 1.42049303e-38
225.9243259 309.2836732 70.37091405 8.304121324e-39
204.9475995 411.6502204 97.69221972 5.721975269e-39
178.2736505 542.8560823 132.4098617 4.649998759e-40
207.3811086 405.7679459 95.9944954 1.005553281e-38
256.1827109 219.5832867 36.14239791 7.196013735e-39
181.3236998 532.8415548 130.1616371 8.119781913e-39
217.809884 360.2665145 83.80747485 7.199613671e-39
207.2823977 413.7047278 98.17951615 8.764433857e-39
178.773342 559.7659653 136.9321289 4.3440911e-39
230.1565915 315.1808099 71.50791928 9.499815673e-39
263.4651618 216.9454211 32.55722567 7.74812533e-39
229.9679708 318.561708 72.4352047 8.211980345e-39
225.0118097 344.0916785 79.37036979 8.394922662e-39
207.851957 292.5251284 101.3285304 5.998159986e-39
222.022117 370.6454497 86.05237394 1.484743546e-38
187.0211987 544.3199445 132.3683379 1.201806812e-39
187.0211987 544.3199445 132.3683379 1.201806812e-39
235.0228701 315.491108 71.19656963 1.752287997e-38
375.9704969 396.1008759 -141.6264742 5.904516814e-39
238.9891379 309.9565088 69.65504344 8.57924666e-39
267.7720495 176.9992475 33.48642832 2.28655924e-38
228.2117743 368.134677 85.23338691 1.549486618e-38
263.3114197 204.1301295 40.69282841 2.314073736e-38
208.6907961 467.6962069 111.8164615 7.19926755e-39
176.1227829 651.9364455 155.5560744 8.217386555e-39
232.464708 353.786573 81.38557705 1.733698932e-38
243.5203802 301.6651199 67.09882545 6.643215504e-39
236.0619431 337.4350045 77.0398778 1.632498278e-38
276.0420977 159.6171779 28.77002197 1.448511573e-38
234.8457245 358.4423057 82.23217532 1.531014141e-38
239.4837695 353.8229593 78.91815423 1.060856646e-38
269.7054594 201.0950882 39.39380127 7.01123852e-39
269.7054594 201.0950882 39.39380127 7.01123852e-39
222.2754961 438.195748 102.9404522 2.118731048e-39
241.0214727 347.1964939 78.99968144 9.040980109e-39
187.5682737 611.0435313 149.1487594 8.766242933e-39
187.5682737 611.0435313 149.1487594 8.766242933e-39
226.1910907 432.5437482 102.5199837 2.761580923e-39
287.5228941 234.8951814 26.69264806 7.564451535e-39
287.5228941 234.8951814 26.69264806 7.564451535e-39
202.0367045 567.3131181 136.9801513 4.616367596e-39
276.3035394 210.6403809 41.35041298 2.277268071e-38
276.3035394 210.6403809 41.35041298 2.277268071e-38
287.3628332 162.3934903 28.52914814 1.429791486e-38
287.3628332 162.3934903 28.52914814 1.429791486e-38
281.7838757 196.1002735 37.17398268 7.19459422e-39
281.7838757 196.1002735 37.17398268 7.19459422e-39
291.321585 163.056356 28.35583108 6.369450829e-39
233.6163021 444.8748724 104.4267718 1.38840778e-38
229.9448619 459.2052533 108.7640453 1.199996335e-39
250.4768035 373.3234376 84.88284585 1.448404794e-38
232.9797456 460.1110817 108.2761655 1.078798451e-38
232.9797456 460.1110817 108.2761655 1.078798451e-38
239.5414559 432.2128232 100.305538 1.199629195e-39
239.5574356 445.8836196 104.3318394 1.269957702e-38
253.2178843 305.6393118 88.75651585 1.512690622e-38
265.4750019 324.1591286 71.18455052 1.512689501e-38
256.1304404 370.944805 83.84734895 7.19711936e-39
246.2603209 419.9173369 97.20129546 8.576079725e-39
272.6783212 297.0700913 63.92476861 1.503437148e-38
272.645416 297.3058252 63.91835581 1.540314699e-38
239.8369045 462.3902003 108.1698165 8.853307008e-39
239.8369045 462.3902003 108.1698165 8.853307008e-39
244.0834954 446.261145 103.9082233 6.796185448e-39
295.2297459 216.0825991 41.39878559 2.286523087e-38
295.2297459 216.0825991 41.39878559 2.286523087e-38
273.5904884 320.1527504 69.60774147 7.199860299e-39
273.5904884 320.1527504 69.60774147 7.199860299e-39
301.7605775 189.3481257 34.16974944 2.304854873e-38
301.7605775 189.3481257 34.16974944 2.304854873e-38
248.5885118 444.2795246 103.1566415 1.224220161e-38
306.5587216 168.6411115 28.66919169 6.462703038e-39
306.5587216 168.6411115 28.66919169 6.462703038e-39
270.1358861 345.7451261 76.4119676 1.47581181e-38
271.7309303 354.6676257 75.07411502 1.540556843e-38
244.2526633 478.3575805 110.9761245 9.230465088e-40
264.1008987 380.2443503 85.59552685 1.466619852e-38
277.4726243 318.2974708 68.91265233 7.844253003e-39
250.661046 448.1610343 103.8986346 7.717777409e-39
250.4298473 455.8238349 105.6062733 4.59753975e-39
265.9926288 384.1248489 86.44814862 1.540558525e-38
311.4896821 170.6944842 28.84351164 1.41159983e-38
253.7555532 447.8356831 103.9118578 1.159034979e-38
274.1177743 353.1656324 77.97772468 1.549594938e-38
274.1177743 353.1656324 77.97772468 1.549594938e-38
226.214514 596.9716723 140.9993389 9.508391619e-39
274.5014861 363.0063138 80.4827882 9.042640647e-39
274.5014861 363.0063138 80.4827882 9.042640647e-39
253.4081117 468.0926385 108.8400943 1.661331815e-39
257.7929016 449.2866989 103.7224583 6.616108786e-39
287.9174912 308.6692911 65.46612511 2.13904399e-38
232.9107482 584.2788014 139.0763346 4.432322457e-39
280.1932879 357.8969918 78.82233484 1.641825881e-38
258.3037971 467.3768633 108.1406042 8.669634614e-39
287.1426084 327.9346921 71.45880573 1.623314728e-38
333.0208816 524.4732395 4.701696242 3.038484506e-39
263.1068982 453.4547035 104.3244564 3.401148956e-39
260.0911874 447.4361202 108.9222737 5.144224116e-39
288.9737429 340.2749038 73.19211259 7.750290336e-39
294.0836847 327.3160767 69.36689832 8.121108942e-39
249.428631 540.1148259 126.7336132 7.433902366e-40
262.9262105 568.5961516 86.48493175 1.336479302e-38
281.1955582 294.904194 86.97783435 1.890438509e-38
299.5502964 306.6764261 63.9718892 7.657321189e-39
322.859002 196.6911075 34.45406733 2.323293859e-38
322.859002 196.6911075 34.45406733 2.323293859e-38
283.9195262 383.0679209 84.74227959 1.567853857e-38
366.8843662 672.0836084 -22.02709402 1.069436096e-38
289.4166512 360.150076 78.63216181 7.289316391e-39
289.4166512 360.150076 78.63216181 7.289316391e-39
328.4732229 177.0021369 29.06426075 1.457625478e-38
301.0793231 310.818373 65.05853971 7.286370861e-39
252.2808471 449.3663261 121.4767575 7.107799194e-39
303.0698749 306.7314265 63.61890199 1.503508754e-38
300.9838417 317.8659157 66.91902646 7.659479189e-39
325.6882488 536.4923428 -2.418767064 1.807032103e-38
306.3109294 309.2604621 64.27638309 1.512829491e-38
294.4408787 365.8965929 79.66225708 1.549318602e-38
295.4771573 368.1633593 80.1429208 1.531017364e-38
275.2617962 471.9898956 108.0639624 7.932079385e-39
330.1564641 218.2936029 39.04972484 7.287504512e-39
330.1564641 218.2936029 39.04972484 7.287504512e-39
294.7545154 385.4880188 84.56071428 7.198506645e-39
306.5878337 215.6634187 88.86595133 1.862886459e-38
298.9107862 376.4051612 81.92784637 8.671386237e-39
309.1514119 336.8588146 71.02888063 1.5679647e-38
309.1514119 336.8588146 71.02888063 1.5679647e-38
267.956631 532.8562534 123.7839638 6.733595051e-39
312.2150749 324.3674057 67.68545502 1.549667105e-38
314.2405995 316.1481197 65.33609993 7.291048396e-39
314.2405995 316.1481197 65.33609993 7.291048396e-39
306.4358462 362.7728923 77.93135307 1.623279135e-38
298.6339286 240.4087171 85.4723265 1.908984414e-38
304.3772622 395.4254665 86.36414631 1.614169154e-38
324.1760979 315.9165698 64.64971944 1.844083556e-38
324.1760979 315.9165698 64.64971944 1.844083556e-38
335.5112447 301.4925797 59.99197041 1.088314529e-38
275.7819176 622.0131362 144.1002209 2.767352871e-39
298.3554678 515.5794596 115.8813994 3.962283512e-39
365.9744888 457.2323909 -5.280952692 1.668669154e-38
285.9981849 632.4677306 146.8004282 3.227612154e-39
291.1170662 624.7316682 143.5366101 1.797927026e-38
291.1170662 624.7316682 143.5366101 1.797927026e-38
302.7561756 578.3445204 130.4229794 1.871538916e-38
305.4934484 597.574644 135.11791 1.816294406e-38
299.6265281 634.336015 145.8109808 3.228689753e-39
331.20581 488.8933658 105.5758325 5.620001378e-39
328.6905374 509.2485835 110.0356142 4.238873204e-39
321.9759495 542.2248474 118.9828798 5.065747198e-39
321.415613 545.1578158 120.1450376 4.697324812e-39
321.415613 545.1578158 120.1450376 4.697324812e-39
307.536408 629.236854 143.4169655 1.81643916e-38
318.2808386 582.028529 130.2471037 1.926928041e-38
330.0050646 542.2765551 118.0766113 6.998977158e-39
336.3554904 511.8335781 110.0957452 1.52918979e-38
329.8846615 544.5328234 119.3850687 6.906421394e-39
365.5072378 208.3401681 98.32076193 5.077613393e-39
323.1430008 584.8154731 130.4400756 2.675856489e-39
323.1430008 584.8154731 130.4400756 2.675856489e-39
330.9145658 558.1277742 122.5214268 4.974281645e-39
335.4896058 536.2211573 116.7758029 1.483597003e-38
335.0996414 548.6679492 119.8239784 9.211314944e-39
352.5031697 471.6401445 98.3862775 1.142689113e-38
328.0254144 584.2992559 129.8018498 1.982208144e-38
328.0254144 584.2992559 129.8018498 1.982208144e-38
338.3278272 538.9355896 116.8683956 9.396420866e-39
352.7780592 478.3119047 99.61080769 6.449045983e-39
336.5382617 551.6544735 120.7568539 1.594232039e-38
338.5473272 545.7608534 118.7936415 1.640293421e-38
355.9350589 476.5609952 98.99370501 1.760615353e-38
355.9350589 476.5609952 98.99370501 1.760615353e-38
385.2610132 345.8690639 63.02259333 5.993474044e-39
342.0989218 544.5761162 117.8887228 1.870746342e-38
343.1671809 540.0680229 116.5538899 1.11467015e-38
340.9409469 550.6213438 119.693 9.765211793e-39
321.4695218 640.3739934 145.1805264 3.136495524e-39
321.4695218 640.3739934 145.1805264 3.136495524e-39
327.6267642 621.3280318 139.4542555 1.78002726e-38
357.4608715 488.6074745 102.1744017 6.169942362e-39
390.466788 340.2146179 60.81217335 1.92660322e-38
355.0899104 503.5130895 105.8754208 6.631646384e-39
346.2148046 543.303165 117.2159849 1.179170657e-38
343.8529218 559.6023261 121.8668981 8.564879146e-39
410.028972 366.3776353 38.22250833 6.176770889e-39
340.2271395 591.3396369 130.257905 4.243553541e-39
357.0804038 517.8787551 109.4539137 7.736550605e-39
360.7391222 506.49575 106.2718563 7.645432573e-39
480.8683385 260.0798311 -53.99659643 1.364495322e-38
348.4683117 564.7296968 122.4385372 4.698408016e-39
397.7845753 340.9286206 60.16768933 1.641014108e-38
348.0597416 568.1347978 123.675637 1.308964386e-38
357.4184669 630.9379263 117.1265498 6.454096263e-39
370.1350144 472.4913373 96.47689804 1.64958473e-38
357.1855279 532.3324928 113.1475567 1.225304626e-38
352.7060266 555.2036317 119.2348971 1.797351233e-38
344.0158867 596.9408768 131.2003058 1.899270333e-38
366.3354093 498.0586579 103.5164101 1.76922381e-38
360.0324367 528.5423172 111.8595395 1.759822778e-38
348.1783558 590.2341588 128.9844976 4.425786801e-39
350.2288794 477.3164059 98.86628912 1.733173164e-38
362.2514805 531.6416677 112.5833074 1.501963822e-38
355.639865 563.8313571 121.1817622 1.622217511e-38
338.92532 644.3898071 144.2351587 2.952462997e-39
350.6469174 596.1838417 130.2257037 7.468604121e-39
359.0467945 560.6642483 120.2563726 1.788312157e-38
352.6525267 589.7592528 128.4924792 1.788598302e-38
366.1164444 530.5326822 111.984771 1.502072423e-38
353.9629116 593.5844869 129.1676041 7.652275114e-39
368.6906182 527.5342215 110.8797518 1.861779573e-38
346.7046466 638.4346855 141.3833969 1.834733672e-38
363.94178 566.5216622 121.0078429 4.144869899e-39
353.7769155 504.16286 109.4074139 1.558146082e-38
468.5462106 586.8747473 -36.84370559 6.178200214e-39
361.9357664 595.4689237 128.814455 8.666429845e-39
364.6272372 593.0167627 127.6971873 1.83473199e-38
353.1040053 647.7097298 143.3804882 3.22868695e-39
398.414939 461.0218934 90.1501351 1.575935986e-38
373.6114089 571.6548369 121.5152937 7.278812257e-39
387.0034474 512.6866702 104.9212117 1.917385058e-38
360.2823159 641.7245866 140.722525 1.844097148e-38
371.82693 595.5353318 127.5563116 1.908488214e-38
367.479932 617.4047224 133.9450242 1.871612064e-38
364.586167 639.9695697 139.6747989 1.662441644e-39
393.2984246 513.5769576 104.4548943 1.566861457e-38
371.5004874 613.7000923 132.1143275 4.243550738e-39
368.8388584 625.974114 135.6565102 3.412720879e-39
355.1118455 380.6622261 143.1466223 1.198508576e-38
355.1118455 380.6622261 143.1466223 1.198508576e-38
399.4707273 494.3756346 98.76300864 1.935427476e-38
383.0687742 568.0524259 119.6826875 8.102075105e-39
384.3766794 628.6445728 125.3547509 6.730684554e-39
390.311428 551.2557482 114.2968577 1.797062425e-38
390.311428 551.2557482 114.2968577 1.797062425e-38
417.55335 431.1791324 79.97065194 1.446827352e-38
411.9113677 457.6347248 87.53921855 1.787339376e-38
411.9113677 457.6347248 87.53921855 1.787339376e-38
436.1250015 356.7614484 59.40217277 1.770156934e-38
390.4075756 561.4169422 117.1932134 1.087083768e-38
389.4277658 569.8577987 119.1527834 1.824683699e-38
378.3484368 621.5724676 133.389531 5.626132059e-39
445.4337429 372.6212413 47.47205796 1.880647777e-38
376.2934861 634.5392175 137.0680291 5.993478247e-39
397.8593083 549.0497976 112.9476816 1.87082005e-38
396.0242681 569.5838949 118.3194285 2.018656337e-38
395.0210547 577.2620427 120.6032395 7.27521092e-39
463.1067774 683.4487998 39.82844247 2.582911165e-39
409.6168658 516.4384204 103.2971639 1.437678835e-38
423.0647816 466.1423602 88.50794742 1.391761087e-38
411.225812 521.1181637 104.3096344 1.861670692e-38
427.9783735 450.4234991 83.66198069 7.006895896e-39
395.3720605 628.99889 129.0531613 5.532853225e-39
384.4171699 644.9835566 138.65029 2.586551738e-39
406.2905212 547.7774079 111.9286129 1.216229116e-38
395.1284622 606.2850727 127.8301148 9.03520816e-39
402.8301591 577.4280219 119.6176709 8.015289889e-39
407.438677 556.70816 113.9477934 1.677134678e-38
412.0383977 557.5481198 113.2827451 1.050240268e-38
412.0383977 557.5481198 113.2827451 1.050240268e-38
436.2810771 455.047548 83.95745718 1.345376006e-38
436.2810771 455.047548 83.95745718 1.345376006e-38
420.570205 522.2497845 104.242556 9.397502668e-39
390.7084032 657.3189519 141.706612 3.226894689e-39
425.6729421 516.9269753 101.4249518 1.667735749e-38
427.595246 510.4018965 99.63092377 1.123852999e-38
427.5078973 514.7659414 100.6990698 1.594087145e-38
427.5078973 514.7659414 100.6990698 1.594087145e-38
397.5050832 651.3914461 138.9163852 1.770448404e-38
416.6826032 569.9201402 115.9622682 1.788311877e-38
423.5722496 539.5096031 107.3806806 6.080271872e-39
422.0479259 549.4217258 110.2768719 9.585853997e-39
426.1402512 541.6555776 107.7627056 1.686715916e-38
432.6092159 515.3729171 100.1953966 1.345266284e-38
421.1746021 570.7424222 114.9659085 1.345628099e-38
407.252111 632.0704859 132.4217136 1.816366433e-38
453.2937507 695.6869791 18.97187616 5.169499336e-39
434.8283763 519.241051 100.9952053 1.216264289e-38
434.8283763 519.241051 100.9952053 1.216264289e-38
425.9695522 566.454153 113.7041793 1.234740129e-38
470.8829188 371.6376666 58.62126024 1.807323573e-38
429.6802118 557.3833785 111.340355 1.64029314e-38
411.7047584 653.3660604 137.509877 1.755721878e-39
411.7047584 653.3660604 137.509877 1.755721878e-39
444.0088454 517.4056523 99.39254879 5.250860126e-39
434.8926969 557.9635906 111.00837 9.398941801e-39
414.6406082 656.2932591 137.8744263 1.770556444e-38
460.7266332 636.5195143 35.5427578 4.80323495e-39
578.1855055 500.2010725 -71.88131712 4.243529719e-39
479.6708924 373.1399609 58.2388132 1.429069958e-38
479.6708924 373.1399609 58.2388132 1.429069958e-38
434.221887 579.1228054 115.7501418 1.631290639e-38
480.5813587 375.2700583 58.48474434 1.834658702e-38
441.7665337 547.6847814 107.3573567 1.51176044e-38
435.0172262 578.7647735 115.9782242 1.658949328e-38
427.8267454 612.1970833 125.2757354 1.963698673e-38
427.8267454 612.1970833 125.2757354 1.963698673e-38
443.3388195 547.6555797 107.1423841 1.539419129e-38
417.5678514 664.6532527 139.8088409 3.321239911e-39
473.2139275 598.5464791 35.54194445 1.676951388e-38
449.6621099 535.5672097 103.2102637 1.308497193e-38
456.2194786 532.0874557 100.6386883 4.42433926e-39
438.5405156 613.9503545 124.334342 1.871538075e-38
438.5405156 613.9503545 124.334342 1.871538075e-38
368.635138 720.1221301 224.5873936 9.120845713e-39
439.5925634 662.0961001 135.0105218 3.689653889e-39
470.5852871 548.2397812 103.691704 1.438075262e-38
470.5852871 548.2397812 103.691704 1.438075262e-38
481.6943142 504.0353946 89.80743885 7.740507872e-39
480.0699258 521.8920092 95.97265629 1.207368706e-38
502.6124786 707.1692078 41.05426551 4.341907877e-39
474.7095388 547.3798561 103.1381517 3.133604645e-39
478.3893439 541.3801494 100.3908647 3.13540111e-39
491.6848195 497.2711604 87.517231 7.833419565e-39
456.3180687 670.630958 136.6231396 2.193013319e-38
464.8056263 644.8805432 129.269137 1.540570296e-38
464.8056263 644.8805432 129.269137 1.540570296e-38
467.1296822 647.7043493 129.8847239 7.93895976e-39
469.1332042 650.2317154 130.6571899 1.199990589e-38
487.0332288 589.9271764 112.6367861 1.134001623e-38
496.9581016 552.484264 101.6198825 2.083690039e-38
493.0224689 575.5835525 108.2628322 5.171602685e-39
500.2892312 544.6990853 99.3262232 2.111312014e-38
500.2892312 544.6990853 99.3262232 2.111312014e-38
496.6317664 563.7178782 104.7470963 2.065180287e-38
491.4234181 588.6008935 111.6117921 1.880971196e-38
488.7030302 599.7291259 115.0685474 2.000786279e-38
503.5942829 551.8374795 98.08018727 1.502823379e-38
488.4194479 608.4888176 117.3622051 1.585718451e-38
496.7378329 574.5469195 107.6222141 1.798571484e-38
496.7378329 574.5469195 107.6222141 1.798571484e-38
494.0002132 591.4955742 112.2296958 9.221356648e-39
504.0442479 548.1898743 99.80304045 1.235347592e-38
497.6173805 580.1074927 108.8047911 2.019227927e-38
508.0619419 538.3162459 96.63507043 1.235708006e-38
508.0619419 538.3162459 96.63507043 1.235708006e-38
499.3608626 584.1585958 109.6815623 8.667475213e-39
499.3608626 584.1585958 109.6815623 8.667475213e-39
509.5637402 543.5265875 97.97818289 1.982600227e-38
546.7454007 740.5786041 28.75372946 1.733387983e-38
509.3167033 552.3063232 100.2793579 2.037593345e-38
494.3283381 618.968628 119.5316911 1.309104936e-38
517.6501736 521.6497963 91.19399726 8.669603786e-39
516.4801933 527.4236307 93.01384759 2.203472891e-38
520.8030639 509.7904856 87.71510415 2.322444953e-38
514.2191525 539.0177082 96.20534905 2.056211977e-38
514.2191525 539.0177082 96.20534905 2.056211977e-38
520.3481656 517.9100765 89.88294736 1.82528878e-38
511.0049993 558.0824607 101.6394336 1.346197447e-38
518.1643711 531.6517929 93.84773121 1.042242217e-38
507.7523834 581.1344697 107.7719082 1.143260422e-38
507.7523834 581.1344697 107.7719082 1.143260422e-38
516.0433381 545.2196078 97.52400045 1.023874277e-38
500.0882355 613.6795249 117.3505456 1.429067996e-38
511.2655254 571.9340125 103.9875573 1.982383867e-38
521.2639048 526.2157584 91.87958401 2.028408534e-38
505.0433862 589.892552 111.697694 2.019154359e-38
504.2113419 609.8632022 115.7873794 8.948027778e-39
500.5683991 627.2349036 120.8717281 1.116108863e-38
532.8494532 522.6042404 76.09953366 2.212360347e-38
525.1107303 529.8572882 92.35837396 1.57018856e-39
524.9128996 534.0446714 93.38830983 1.853527607e-38
513.8093247 583.8388014 107.7418928 2.000679079e-38
514.7181447 585.9606221 108.2419411 2.07439971e-38
502.1898695 642.5463938 124.4210734 2.028005661e-38
497.0707993 669.0401471 131.9147436 7.831520805e-39
511.7802563 607.7309526 113.8582941 5.811986274e-39
534.5866773 527.8171613 90.29458519 2.767308029e-39
534.5866773 527.8171613 90.29458519 2.767308029e-39
508.6333793 637.1220681 122.2631864 1.95472798e-38
543.2753983 489.6702791 79.6079725 2.349920492e-38
532.6668048 535.9709736 92.94185001 1.81671942e-38
541.4280589 499.7087631 82.36825134 2.858417653e-39
552.828438 626.8754371 34.86419074 1.871924133e-38
515.8156917 640.0525207 96.49296661 1.68655785e-38
519.3304673 601.8097357 111.6368857 1.595417818e-38
515.5114623 618.6828983 116.5649869 1.77033616e-38
523.0237904 591.6925603 108.5807632 2.028668195e-39
528.7379944 568.0693258 101.7039565 2.398529714e-39
528.7379944 568.0693258 101.7039565 2.398529714e-39
556.4929861 454.5098168 68.61762688 3.043508161e-39
509.2240693 657.2268871 127.1935557 6.723721502e-39
520.6365046 606.393457 113.6232216 4.8925383e-39
565.9107516 417.9249854 59.79245258 2.350605447e-38
539.177253 547.7373988 94.51080036 2.046884234e-38
511.9288339 661.8117603 128.1707216 2.1194778e-38
564.0036913 458.9327383 68.68694578 3.598477003e-39
565.7797958 452.7095375 66.82216326 2.267458421e-38
515.5523445 666.3896906 128.8257163 4.878043269e-39
540.2390904 563.3812452 98.81613419 2.494653183e-39
554.1173349 518.8082849 83.61801156 2.074471597e-38
517.8203832 659.1564891 126.7284744 8.652628456e-39
553.7566903 509.5274567 83.03745808 2.046813048e-38
525.0107824 633.8488889 118.851486 1.503583163e-38
529.636183 613.7317127 113.3437088 1.96423523e-38
533.2304293 601.0037363 109.5357954 1.853312087e-38
522.2226412 656.0456742 124.9568179 2.147026347e-38
522.2226412 656.0456742 124.9568179 2.147026347e-38
522.2226412 656.0456742 124.9568179 2.147026347e-38
636.0600311 520.8647016 -19.0517694 7.647876438e-39
550.0175691 538.2279894 90.9280487 1.384362371e-39
551.288386 532.3902991 89.44773334 3.873637371e-39
558.4540104 506.1721183 81.65004543 1.844978985e-39
566.9590702 474.5189631 72.27401223 4.055144758e-39
529.6864362 634.3138785 118.4481421 8.211917287e-39
523.1533494 668.6984772 128.2711489 5.984018082e-39
525.6382066 661.5159015 126.3301945 8.747696748e-39
549.9055152 560.6881152 96.75209571 9.132050496e-39
567.0125445 489.2313292 76.08329982 1.61225498e-38
584.6765157 664.158227 38.89789043 1.88089945e-38
565.3243577 498.1345673 78.75332632 2.138757845e-38
553.5360837 551.7462981 93.84208136 2.000823273e-38
567.1532223 492.2860904 77.09771499 2.212041551e-38
553.4560461 556.766413 95.15073622 5.626822899e-39
543.3644665 599.0670608 98.81494597 1.05095381e-38
537.3614829 628.1780716 116.0497402 1.788813261e-38
586.4193357 427.291868 57.20486776 2.35053328e-38
532.6754769 659.7812207 124.5226913 2.202231481e-38
568.0457735 470.663006 74.14075417 4.424618118e-39
568.0457735 470.663006 74.14075417 4.424618118e-39
545.595621 605.771621 108.9189693 2.037630619e-38
530.499612 670.4023447 127.5676058 2.183828929e-38
573.0528949 490.3765915 75.28382942 1.419299685e-38
558.2796886 552.9544198 93.5335523 4.988661769e-39
560.1572208 545.7257918 91.39220742 2.065181268e-38
582.5958498 451.0468652 63.87531848 2.175335519e-38
539.7061391 636.9632776 117.4994142 1.834982963e-38
552.026344 590.1044778 104.0672352 1.99149595e-38
552.026344 590.1044778 104.0672352 1.99149595e-38
580.0078553 481.1800085 71.59107711 3.59595887e-39
580.0078553 481.1800085 71.59107711 3.59595887e-39
567.5599408 537.9239394 87.95784406 2.859135118e-39
535.7910596 679.2453351 129.1313527 4.603254245e-39
535.7910596 679.2453351 129.1313527 4.603254245e-39
566.0525561 554.4111346 92.52441755 2.501550374e-39
544.8353981 643.654402 118.7898949 1.816759357e-38
569.949553 547.8991534 90.43560185 2.083800601e-38
549.106186 639.5652626 116.8845972 1.724421355e-38
554.5839383 620.657507 111.1983405 1.954728261e-38
568.3171447 565.2706775 95.4123888 2.000751246e-38
594.1740672 463.3629444 64.95829573 2.349991398e-38
572.2432144 556.2241703 92.40954783 3.788690658e-39
547.0621227 661.6959417 124.0040162 2.183900675e-38
567.6587763 586.334041 100.3427714 2.031891181e-39
577.4302165 555.7290288 91.12264139 1.881079377e-38
571.8443347 578.5148632 98.0956033 2.122649079e-39
589.6345532 505.835269 76.63348334 1.493566822e-38
580.1559493 550.9014588 89.30790407 2.065180007e-38
576.1270045 570.5369768 94.94567783 2.009899623e-38
569.4850655 603.0305998 104.1024622 2.028266302e-38
579.293075 562.4092773 92.33297417 5.634772465e-39
573.5921609 586.4942114 99.37316819 1.945614916e-38
567.381377 612.9868197 107.2705565 2.120847009e-39
583.8090962 548.422898 88.16498873 1.253895458e-38
579.5373159 624.8772693 79.95252147 7.92880455e-39
570.1708303 611.6288173 106.2097485 2.950251748e-39
570.1708303 611.6288173 106.2097485 2.950251748e-39
550.0420734 697.6633568 131.5739271 2.156134507e-38
602.9002609 483.5995159 68.3930189 2.304005967e-38
567.9902008 631.5604088 111.6946055 1.087943465e-38
587.5335281 551.8685499 88.49688084 2.02844749e-38
576.6785091 610.1446549 104.6167483 2.57966856e-39
562.5626243 656.3039022 122.0102047 1.834359525e-38
581.6466989 588.8216046 98.77197672 2.029024124e-39
575.4581455 619.3212003 107.0833684 1.973093538e-38
590.9889844 564.0016889 91.26949374 1.982275546e-38
572.5265768 644.9509479 114.4761919 1.945255343e-38
591.0622807 591.443028 97.47474424 1.844019797e-38
580.5051298 635.4521146 110.692281 1.410116275e-38
602.7545119 546.7790551 84.04237592 1.853347119e-38
620.1834029 475.1170113 63.18071846 5.531698555e-39
594.9815607 586.8767433 94.8858902 2.581847579e-39
580.0845033 651.5050906 114.3226205 1.281479738e-38
621.9408885 482.8938504 64.75048683 2.331197883e-38
603.4570968 559.8515647 87.45159338 1.788846192e-38
625.3014522 469.9765875 61.29938885 2.349600856e-38
612.0557828 529.2913668 78.35660967 2.492517604e-39
630.3837987 453.8472797 56.09277451 2.349885179e-38
630.6105391 454.3490084 56.1883055 2.349921613e-38
608.2466695 556.8064197 85.79140319 2.401402376e-39
593.0133061 620.0509186 104.3710509 1.216760208e-38
593.0133061 620.0509186 104.3710509 1.216760208e-38
606.6106408 563.9424065 87.94548028 8.21406828e-39
677.2969173 522.8186109 -5.3349852 5.899046145e-39
603.6576788 583.3892337 93.21051462 1.982385969e-38
579.2592437 686.1316001 123.2747455 2.950932779e-39
579.2592437 686.1316001 123.2747455 2.950932779e-39
581.4718153 678.8203335 121.1164602 6.354590059e-39
620.8610992 515.3248426 73.3274627 2.056032331e-38
592.3510688 636.466225 108.1517051 1.95443637e-38
495.0945498 424.2849287 224.2047285 1.512003285e-38
611.9619606 564.7852568 86.99941844 1.650373941e-38
594.0701429 639.1651473 109.0644378 1.410375936e-38
594.0701429 639.1651473 109.0644378 1.410375936e-38
621.5979967 526.1940865 75.61284824 1.39233604e-38
636.5296306 465.2392953 57.93035332 3.685298653e-39
578.8606582 705.7673131 128.5516412 2.146877109e-38
578.8606582 705.7673131 128.5516412 2.146877109e-38
654.6085236 395.3479321 37.14107016 2.194135339e-38
654.7303915 395.7449868 37.19885232 2.258745007e-38
703.41955 576.6905462 -24.69575616 1.991641685e-38
589.4160415 681.5974043 120.2681531 6.99922799e-39
608.7931617 608.5915973 98.53022983 1.825473471e-38
638.5433319 485.7531847 62.59075596 2.102202312e-38
644.3394584 467.9187383 57.0038211 2.185142226e-38
637.9027656 504.5356436 67.12067196 1.493823119e-38
628.8425406 547.2209155 79.39672631 1.042278791e-38
647.2345721 471.5056007 57.28185549 1.2815896e-38
639.2141503 506.4549557 67.24464995 1.10688944e-38
627.4791593 560.288818 83.07493482 1.337053554e-38
612.9447995 620.7276871 100.7816425 2.092587443e-38
606.0563182 652.2705939 109.7224728 1.538791487e-38
634.2203288 537.4037452 76.15258804 1.954583647e-38
613.7203863 626.2714527 101.9871535 1.179738604e-38
651.6571729 470.7679513 56.2814686 2.092839256e-38
633.5957848 546.0186112 78.2002795 2.028374763e-38
642.5520515 516.6734265 68.3828111 1.98241946e-38
653.3514715 468.2102615 55.29883982 1.143040138e-38
602.4390152 684.501759 118.70131 9.482014978e-39
622.0482272 604.2530178 94.81281269 1.89000761e-38
636.0592001 562.9731231 81.7521007 1.568759236e-39
622.5782495 618.5900675 98.22574682 1.770226999e-38
627.2846067 603.0157541 93.45653419 1.110995665e-39
657.5269016 477.4230567 56.79320993 1.80721189e-38
659.3356777 471.9773123 55.07709128 2.046555349e-38
675.6415808 698.6991949 32.90631477 1.041881803e-38
629.4509853 598.3448111 91.95400286 1.392147985e-38
641.6755165 547.6483414 77.07655674 1.937904692e-39
629.8541046 598.9392923 91.92431921 1.189424799e-38
605.644066 701.4748237 122.3869896 5.342245806e-39
605.644066 701.4748237 122.3869896 5.342245806e-39
622.8393734 631.3697225 101.7832844 2.672557832e-39
609.4938727 687.0241001 118.008421 9.576365805e-39
547.808327 616.2528775 194.1840318 1.622638742e-38
628.786158 609.4250159 94.82369878 2.123344123e-39
663.2269466 467.2707627 53.12791293 2.110914185e-38
647.2794112 517.7045796 79.74959016 1.032805313e-38
611.6258876 691.7857204 118.8521024 2.137592105e-38
635.2111716 598.586751 90.97292974 2.032233098e-39
622.8765412 652.4367582 106.4520408 1.806815743e-38
633.8829624 616.3886905 95.69644683 1.410515225e-38
594.6397444 670.1765955 146.8879213 5.708867523e-39
629.5174381 639.5910026 102.3158101 2.21130601e-38
672.7364711 464.0199752 50.42228209 8.394463036e-39
644.1031299 583.603915 85.23683296 2.248292161e-38
627.0817211 552.3619231 115.9950659 2.22122398e-38
640.0401591 616.7698882 94.54485611 1.846402705e-39
655.9403298 551.1617292 75.4202572 4.331339284e-39
672.6675502 484.390419 55.39051328 2.121574283e-39
672.6675502 484.390419 55.39051328 2.121574283e-39
676.200946 470.936201 51.53341532 2.00089586e-38
644.1818747 604.6987082 90.78391109 3.961493179e-39
666.1693496 517.1485063 65.09631266 2.083178565e-38
677.7153548 475.6967612 52.48119689 5.257992735e-39
669.8384732 509.7530995 62.19980608 2.214114632e-39
634.7857752 653.0120249 104.823082 1.788485918e-38
656.3926112 575.9769934 81.28664952 2.118316264e-39
649.8198455 605.3985906 89.91193152 1.569109561e-39
659.3259468 572.2331413 79.5866032 1.844971979e-39
661.7725241 562.7391617 76.84269429 2.581442604e-39
684.233754 876.1982955 52.31155429 1.549070152e-38
636.6657992 501.7071907 106.4460651 2.147863763e-38
635.2757781 675.9424254 110.6376453 1.880717842e-38
682.0213795 490.318819 54.93651533 2.037370678e-38
669.3908672 548.0745178 71.61835329 5.71716321e-39
686.1812902 485.1955638 52.21682605 3.135003141e-39
667.0577382 561.962342 75.70163874 2.248293563e-38
669.4545452 556.1383045 73.56874717 1.926733681e-38
631.903178 714.1348635 120.6750648 2.211305589e-38
686.5756676 494.3599851 54.92121595 3.876484809e-39
644.3422131 672.8214533 107.5359161 2.037161324e-38
647.6809546 664.4226751 105.1004709 2.009538509e-38
658.2678868 628.2747297 94.25368926 2.229779607e-38
667.7835586 593.7449647 83.1717124 2.239108472e-38
709.5639936 424.0491538 32.54528643 1.391453642e-38
685.3450927 531.2947216 64.09465037 2.285241319e-38
692.0350576 509.4477023 57.90762346 2.303608418e-38
653.8853778 672.0858076 105.3499304 1.069250984e-38
630.5475473 459.4625616 146.0926988 5.254440444e-39
725.7784384 460.5845184 38.72418629 1.401010357e-38
610.9845734 645.0443143 198.7702764 7.916218087e-39
610.9845734 645.0443143 198.7702764 7.916218087e-39
609.5998016 437.310701 203.5004578 8.478409222e-39
760.8277562 424.6401789 28.67949659 1.521081877e-38
584.9123193 680.3538977 274.8874354 1.347178916e-38
660.1443404 411.3497904 176.4003426 1.336764606e-38
773.2864526 433.1617928 32.12842257 1.80678085e-38
810.7948479 476.7375443 -2.56465249 6.087431106e-39
650.9642716 777.6666993 204.287644 1.273028367e-38
708.2670517 563.0784869 114.4088428 8.655936922e-39
752.9689265 519.0291236 70.65221413 5.990553738e-39
713.1805746 439.8474133 128.8202877 4.145185191e-39
772.4463591 535.1625625 66.19197021 6.268918875e-39
757.7090655 595.4707117 85.49124268 9.679113213e-39
780.0778126 508.3332281 58.48919715 5.43808341e-39
758.8254561 642.6938505 70.84050803 1.465981561e-38
774.7025643 561.1146335 75.0140915 1.677527883e-38
650.3122025 745.4365856 253.7238831 9.599963671e-39
806.6286195 462.9198532 43.95403423 1.696399309e-38
771.1301309 597.4381585 86.9962207 1.216547912e-38
745.4202373 391.6942521 137.0328082 1.787946698e-38
801.5000334 504.9047213 57.52581271 1.704680843e-38
828.6476817 375.66857 48.94251303 1.566857814e-38
774.8869171 648.4799456 103.0647947 1.022864782e-38
812.2626529 484.2467041 51.03913702 8.661680844e-39
794.3111985 575.1031846 80.50275839 1.539559539e-38
853.9405223 576.3747035 14.93621501 7.192346537e-39
785.7935915 618.5632064 94.66544777 1.308921226e-38
803.143023 551.5574982 74.48281621 1.705545865e-38
666.1582264 449.3999258 247.8575589 1.253792043e-38
813.3879077 558.9690921 76.27471116 1.539486111e-38
777.2766933 339.7050206 161.1758211 4.703065932e-39
654.8050408 665.6259244 313.7886785 8.216328574e-39
866.6477139 480.9778705 19.89022145 1.512330769e-38
700.6656311 749.1428078 269.4964827 9.600681136e-39
811.826149 666.8704503 111.6448955 7.928473844e-39
692.4942771 750.8275844 271.0277473 1.2731713e-38
637.7624221 618.2201535 349.5548199 1.087798571e-38
837.0669904 585.9239172 86.03577161 4.978212287e-39
806.4304609 837.533875 141.7990684 9.402851424e-39
777.646483 304.2145436 189.9572164 2.582220324e-39
699.9434104 309.8691904 290.164724 4.150274707e-39
662.7941813 364.6248699 361.4962735 3.228291784e-39
662.7941813 364.6248699 361.4962735 3.228291784e-39
695.1564437 669.9766733 338.0241037 1.346855216e-38
674.2185898 372.7555995 355.7482806 1.235565634e-38
674.2185898 372.7555995 355.7482806 1.235565634e-38
929.8283849 437.693878 32.57397697 1.807217075e-38
843.7739883 493.8000274 142.637215 1.770263713e-38
907.9098736 508.6745028 64.90718633 5.532103531e-39
907.9098736 508.6745028 64.90718633 5.532103531e-39
801.532182 643.732452 158.0632675 7.934994085e-39
844.7855532 769.4362711 147.7289476 1.659489108e-38
970.8520044 422.2215396 -2.098569378 9.872537242e-39
865.901667 793.8883319 132.7625394 1.622936237e-38
865.7010034 565.7865694 86.66999336 1.798176598e-38
744.2687211 346.7974413 267.1458973 5.261323622e-39
888.1230314 627.163464 102.9414596 1.871680447e-38
825.4448283 794.9699524 175.7530537 6.742990757e-39
913.8479291 731.0913185 90.86819093 1.522024391e-38
913.8479291 731.0913185 90.86819093 1.522024391e-38
948.3419645 425.3177633 37.56483185 1.945654012e-38
903.4987899 761.6647042 102.6313463 2.960392945e-39
817.6629789 388.889161 230.0734592 5.71869623e-39
826.4439637 778.1104443 168.6096727 6.274362919e-39
832.139789 828.0236634 173.8535114 1.476217065e-38
870.281205 746.0524384 139.8670198 8.218097013e-39
830.5314576 731.3527722 206.9838796 5.16909296e-39
890.9260763 505.2096539 127.2820058 5.346947162e-39
922.1293089 671.3574984 91.58405543 3.413044579e-39
869.4622295 836.5265374 145.2056607 3.429354291e-39
891.2257949 598.4391966 95.14290428 1.051248082e-38
937.8241349 530.5726639 72.98950228 1.788812e-38
968.3498292 505.3464705 39.3705942 1.964019991e-38
968.0932159 487.5772724 38.3933533 1.991750426e-38
968.0932159 487.5772724 38.3933533 1.991750426e-38
922.9080176 607.5543806 97.74787335 4.887462797e-39
832.3357311 592.7866426 163.5923029 5.1691364e-39
927.4789316 683.4954213 102.3196147 2.12337355e-39
884.0072465 845.010543 154.0186263 1.448199083e-38
913.0602647 623.3807622 100.8915686 1.761010519e-38
932.913061 590.3411108 93.61508675 1.687361775e-38
893.6678771 752.9090027 144.4450086 1.613751006e-38
889.3029709 772.8026131 150.5775323 1.595240414e-38
897.0765775 756.3581286 143.1158887 3.981067918e-39
833.1368431 502.3328345 192.5679624 7.564359049e-39
978.4795748 449.1096409 47.45001443 2.09316674e-38
903.0135863 761.4335362 142.6095544 1.595385308e-38
952.0846423 553.5181195 81.77390134 4.243881445e-39
952.0846423 553.5181195 81.77390134 4.243881445e-39
906.5671164 599.1395809 105.8097044 3.691439143e-39
909.1946471 590.9451142 100.3259542 1.069723222e-38
909.1946471 590.9451142 100.3259542 1.069723222e-38
945.6344387 756.5311136 111.7109807 5.170206992e-39
835.0380739 439.7809043 243.4415439 8.203998549e-39
895.1362844 395.6595815 155.6176151 1.234876475e-38
928.169923 732.4615521 119.2324651 2.213795136e-39
979.1795593 503.9232461 57.61822445 3.694307601e-39
769.7227727 467.7945701 279.0663428 4.154597713e-39
927.1594834 704.6392161 131.1105936 4.058419593e-39
964.1232303 590.0933885 94.589166 3.320488815e-39
845.6432276 403.2029805 270.6592132 1.687679449e-38
957.123068 618.2300693 103.2721451 3.968383364e-39
1018.098084 535.7275671 40.12285113 5.442068703e-39
749.4600469 406.4584262 380.7398167 1.088017313e-38
749.4600469 406.4584262 380.7398167 1.088017313e-38
849.3385348 495.0296927 212.9480961 7.47433263e-39
921.9699129 835.3152469 158.4528337 7.848232691e-39
1022.382204 494.2447624 39.35288888 3.414122177e-39
1001.511478 518.9570561 57.71110481 6.272902766e-39
1001.511478 518.9570561 57.71110481 6.272902766e-39
899.4902136 857.6961663 187.0661896 1.328993285e-38
994.1169897 520.3885272 73.01910597 1.964020831e-38
995.6110905 530.5108294 76.16651043 4.336794539e-39
945.0290566 526.0121814 104.0154176 3.596009317e-39
998.0609413 527.8657549 75.14015833 2.028556931e-38
998.5639849 533.9336693 77.13577275 1.899554936e-38
916.2619884 474.5504723 145.745595 9.125572293e-39
854.7781823 686.6475467 274.1674964 3.144091963e-39
967.8559325 673.8360736 122.0820742 3.874389868e-39
1003.701705 603.1720884 77.03699827 1.825799133e-38
989.658968 559.1157114 103.1217932 6.08636752e-39
1009.409685 532.0341259 76.4292375 4.520824264e-39
1009.409685 532.0341259 76.4292375 4.520824264e-39
985.6081732 617.7585368 104.827305 3.689995806e-39
889.532469 385.6680936 211.6293686 4.33177649e-39
875.3006007 495.8171471 221.0236333 8.762186174e-39
962.6057184 739.281364 143.3305123 1.687398209e-38
913.3328594 845.2466799 198.8955822 7.659123259e-39
1021.094089 537.1919215 79.20687229 2.019337228e-38
963.2541155 781.4032498 156.3401814 7.931010194e-39
925.4517288 756.2617971 231.4975831 4.798516778e-39
963.0551641 844.7378541 171.6455859 7.753874858e-39
951.8709314 519.355296 189.4356047 8.8522196e-39
951.8709314 519.355296 189.4356047 8.8522196e-39
1029.177147 565.126949 87.39021039 1.816399223e-38
994.5394987 691.2550111 128.6890115 1.530736263e-38
994.5394987 691.2550111 128.6890115 1.530736263e-38
918.752416 257.6852512 272.0538278 4.249279246e-39
1015.485541 630.433831 113.2166555 1.742642439e-38
1017.383849 690.1295237 109.6932069 3.229376389e-39
1007.686837 650.9756743 115.8651478 1.751825988e-38
966.405752 806.5174687 164.1967243 7.845689334e-39
930.4145095 667.5274216 176.0969101 1.531605629e-38
998.2421923 688.4609977 128.2574969 1.75424491e-39
1052.300534 615.0125679 78.28461964 5.165481813e-39
927.6885894 794.7927558 200.7896949 6.182165888e-39
927.6885894 794.7927558 200.7896949 6.182165888e-39
987.4717475 744.2929318 145.6038826 1.585911129e-38
986.2286554 527.000371 116.8174015 3.411260726e-39
1043.399562 544.3429501 82.04531153 4.798123013e-39
974.0014894 846.8439601 175.1400944 7.201784282e-39
1041.025211 663.600124 94.48081551 1.779557265e-38
1000.212296 716.446174 136.9196469 3.135752836e-39
1038.280422 669.8031733 99.45027291 5.071851254e-39
965.7883821 477.1714134 149.7142992 6.178924685e-39
1047.580518 551.6786949 86.21999932 1.936290396e-38
1029.430558 630.7636601 110.1211173 1.8072877e-38
1055.512995 549.8998944 83.56790107 3.045346664e-39
1053.459845 570.8345998 90.26156712 1.853458803e-38
986.3719934 631.0128521 161.0732459 4.058429402e-39
811.6451267 559.3270713 395.7578458 3.31651193e-39
1006.457699 753.8094293 163.5028628 5.534281149e-39
1058.664857 509.9365243 80.78633247 1.862675563e-38
1040.130657 634.2485556 111.4412154 1.742787193e-38
965.325798 750.5056651 173.9802576 4.248608024e-39
1089.480542 476.1704865 59.27035755 5.257680246e-39
987.7156394 496.4052559 174.3766305 3.412660623e-39
1071.782824 538.0189726 80.22042068 2.019408695e-38
852.3707344 471.1659774 304.8177935 4.799958714e-39
1044.266649 641.577154 113.6812013 4.058775523e-39
986.2419714 823.7637624 187.247526 1.448052367e-38
1056.349796 600.738141 100.5546646 3.967293154e-39
1056.349796 600.738141 100.5546646 3.967293154e-39
1007.685029 479.4789489 161.3717707 2.148187883e-38
1066.833124 568.0054036 89.89561039 4.799573357e-39
985.9508109 525.1390172 186.422897 9.406476583e-39
