# .PCD v0.7 - Point Cloud Data file format
VERSION 0.7
FIELDS x y z rgb
SIZE 4 4 4 4
TYPE F F F F
COUNT 1 1 1 1
WIDTH 911
HEIGHT 1
VIEWPOINT 0 0 0 1 0 0 0
POINTS 911
DATA ascii
168.7874439 134.3289315 -75.60436697 1.641324776e-38
173.2540697 159.6657187 -100.1156275 1.613702942e-38
173.2540697 159.6657187 -100.1156275 1.613702942e-38
172.1721002 146.2576055 -86.39986771 1.632466888e-38
172.1721002 146.2576055 -86.39986771 1.632466888e-38
162.8759884 83.65680762 -14.65148555 2.176034627e-38
174.8095492 148.5495428 -87.41244798 7.842052965e-39
173.90063 141.1976674 -80.08184238 1.051395359e-38
173.2720207 133.6326884 -72.51347923 8.855820937e-39
207.0843703 212.1601461 -149.7469839 3.966942829e-39
176.2406863 137.6878065 -76.23560337 9.961113318e-39
176.2406863 137.6878065 -76.23560337 9.961113318e-39
258.4211124 271.3326034 -211.0853782 1.502934922e-38
176.2330991 135.3276396 -73.41075668 1.493933541e-38
176.2330991 135.3276396 -73.41075668 1.493933541e-38
169.3574099 74.89692089 -17.64346402 6.916882087e-39
182.040387 166.127448 -103.429154 1.060761778e-38
182.040387 166.127448 -103.429154 1.060761778e-38
185.7073275 187.2096383 -123.8957569 8.673313023e-39
185.7073275 187.2096383 -123.8957569 8.673313023e-39
199.5060522 296.5587521 -231.4981453 9.318322298e-39
196.1546799 270.2031725 -206.0149324 3.04468385e-39
182.5399619 156.6125498 -93.56983869 1.641583596e-38
200.334207 296.4038621 -231.3413123 9.133931038e-39
172.7297036 73.47272178 -9.703486929 2.184859584e-38
175.5291192 88.60000279 -24.57002142 2.166599964e-38
187.4109183 172.9209173 -108.5987656 6.182241558e-39
185.0389355 178.0891976 -100.0879408 5.997123025e-39
221.7547691 565.5168195 -102.4036407 2.951389602e-39
187.4883512 161.9013062 -96.79513065 7.567220501e-39
185.3006265 134.7183039 -69.25804274 1.558600943e-38
192.1657111 183.0512306 -117.2986107 5.906009197e-39
190.4827193 168.2137408 -102.4801063 6.182237355e-39
248.8188764 374.9829954 -94.85767949 1.807461741e-38
181.5416547 94.35903131 -28.19150052 9.59417771e-39
191.656445 163.7455576 -97.16726661 1.180614976e-38
191.656445 163.7455576 -97.16726661 1.180614976e-38
187.4356422 128.5918882 -61.58233081 9.039221479e-39
193.1159942 160.2660404 -93.02832742 1.697000747e-38
193.2817526 151.288964 -83.76088758 9.501557487e-39
192.1815396 138.6399261 -70.81718178 8.305161088e-39
196.6502035 172.4771994 -104.9016073 5.997843292e-39
213.8133994 300.4429117 -230.7917152 1.01473683e-38
218.4223856 509.2185448 -118.979362 8.57596622e-39
199.2208894 166.4579217 -97.04286913 5.995683891e-39
191.5485315 98.67150819 -28.90327009 6.642865179e-39
192.4221456 105.0752412 -35.45948968 7.010565896e-39
194.6628979 118.2704011 -48.33816621 1.318695003e-38
201.5574236 172.9072434 -102.6787084 5.813096103e-39
217.3164637 291.6514182 -221.3995046 8.767314926e-39
218.9734173 294.8160097 -223.8229659 9.042101148e-39
201.0078592 143.7765243 -72.67178598 1.724479789e-38
259.8632273 196.4752796 -104.8159871 6.36260969e-39
207.5134905 190.5326898 -119.6288653 5.722698339e-39
201.0368484 137.2376155 -65.90552938 1.503460549e-38
202.9610705 151.0445158 -79.63377829 1.632319752e-38
198.4504139 106.2600505 -34.00071316 7.103120259e-39
198.4504139 106.2600505 -34.00071316 7.103120259e-39
203.4022297 136.4870649 -64.25743575 1.512616353e-38
218.4016376 253.1367893 -181.2383257 1.189871253e-38
224.9805731 302.7713526 -229.690053 3.509277349e-39
210.8456431 176.0612735 -103.3844553 1.58625781e-38
203.4980118 119.0098875 -45.53522337 1.807250566e-38
205.2346623 131.8226831 -58.4505027 1.245081852e-38
200.3330918 93.5810199 -19.35865866 2.240319614e-38
200.3330918 93.5810199 -19.35865866 2.240319614e-38
198.7770531 79.33229623 -5.56239301 2.221916361e-38
205.2266838 121.9529971 -47.57871684 8.855526665e-39
205.2266838 121.9529971 -47.57871684 8.855526665e-39
204.8980958 109.2152042 -34.12824753 6.73540693e-39
204.8980958 109.2152042 -34.12824753 6.73540693e-39
214.2324133 177.9949204 -104.3282903 1.37460527e-38
209.5211507 140.0935523 -65.04775518 7.842078188e-39
206.9178824 114.0358735 -39.28649172 7.840323762e-39
207.8891071 110.8484296 -34.79666355 1.512556378e-38
217.9786027 185.303535 -110.1091583 5.443960456e-39
217.9786027 185.303535 -110.1091583 5.443960456e-39
210.6690995 120.979164 -44.84316125 1.954720273e-38
210.6690995 120.979164 -44.84316125 1.954720273e-38
211.6244401 128.2087633 -52.22301591 1.779876621e-38
217.0190294 168.6522625 -92.68535106 5.907346036e-39
209.7367133 109.6625353 -33.17977582 1.401885608e-38
235.1689386 300.6677315 -224.6536252 1.070125534e-38
218.410872 165.6190054 -89.39582023 6.642493835e-39
218.410872 165.6190054 -89.39582023 6.642493835e-39
215.2539756 139.0220778 -62.27824267 1.540102262e-38
215.2539756 139.0220778 -62.27824267 1.540102262e-38
216.4774746 137.6959055 -60.09260152 6.829041693e-39
236.865135 293.8759489 -216.7342197 8.764073723e-39
215.5388827 125.9493906 -48.55906597 8.856890128e-39
218.3042647 145.9060641 -68.07092858 1.742884163e-38
215.5356185 123.5842074 -45.44829787 1.107062501e-38
217.0440296 124.812229 -46.58050704 1.01480143e-38
220.2771122 141.2445162 -62.44124202 1.660015155e-38
220.2771122 141.2445162 -62.44124202 1.660015155e-38
230.8199826 222.0155569 -143.9547829 3.970265308e-39
218.1731368 122.0936901 -42.85976729 1.752142962e-38
218.1731368 122.0936901 -42.85976729 1.752142962e-38
217.2522827 114.2524677 -34.67923151 8.210534205e-39
217.9021668 115.5356798 -36.01913313 1.208275486e-38
219.7519307 119.7166813 -39.99261118 9.50020103e-39
228.0432769 156.8207919 -71.17675665 8.949398248e-39
224.150437 203.8844579 -85.62343524 1.383366889e-38
226.7245359 164.8922668 -84.99545149 1.291425454e-38
226.7245359 164.8922668 -84.99545149 1.291425454e-38
232.428883 203.4366015 -124.1830044 8.303820045e-39
228.5002101 165.6736515 -85.37765115 1.38364939e-38
228.5002101 165.6736515 -85.37765115 1.38364939e-38
223.1846796 123.0842812 -41.77800593 8.396309948e-39
227.2955844 151.9597371 -71.03612705 8.305187712e-39
224.7382057 129.4423753 -47.94411476 9.77641097e-39
228.0830189 153.0892556 -71.91791592 7.841701239e-39
246.939506 297.5143939 -217.760557 4.618154251e-39
231.0970888 167.6345841 -86.59196902 1.448216319e-38
232.7218795 175.1923792 -93.89475241 1.724443075e-38
224.3775327 102.5721372 -19.72683818 1.208923867e-38
242.0062895 230.8012085 -148.8357364 9.136093242e-39
228.2623197 124.1182363 -40.81323678 1.660027206e-38
226.6473429 111.0750743 -27.49295479 2.010264521e-38
229.5121764 133.0124126 -49.51636637 1.503538602e-38
229.6263295 128.2520169 -44.76981212 1.715085064e-38
228.1586345 113.7072016 -29.64418795 7.933582978e-39
231.6074359 111.0819463 11.96518268 1.430006305e-38
275.3703568 295.9652489 -138.161942 9.682400659e-39
226.1563182 86.61000394 -1.286358722 2.258901953e-38
226.1563182 86.61000394 -1.286358722 2.258901953e-38
234.3361724 146.7895431 -62.83580901 8.121208434e-39
234.3361724 146.7895431 -62.83580901 8.121208434e-39
238.0310165 174.0435241 -90.28544213 9.411843556e-39
234.3836189 143.7092422 -59.43450324 1.59554954e-38
239.4855624 182.6319715 -98.70360496 7.659089628e-39
239.4855624 182.6319715 -98.70360496 7.659089628e-39
235.405706 150.0577841 -65.76424004 1.503570131e-38
235.405706 150.0577841 -65.76424004 1.503570131e-38
236.9391467 157.1343705 -72.85494398 1.816675419e-38
236.9391467 157.1343705 -72.85494398 1.816675419e-38
262.2578552 319.7109948 45.30800511 2.074619854e-38
238.9152361 162.2667597 -77.61357084 1.19912809e-38
231.4420372 96.50498839 -7.182143677 6.824303903e-39
231.4420372 96.50498839 -7.182143677 6.824303903e-39
248.157798 225.9770854 -142.4300569 9.778220046e-39
235.9974168 129.7811646 -43.68577463 1.696966975e-38
239.8010801 153.8129373 -68.09888156 1.208346112e-38
237.3714934 133.1352653 -46.75807726 8.211966332e-39
237.3714934 133.1352653 -46.75807726 8.211966332e-39
250.7956675 228.7642596 -143.683537 3.971693231e-39
244.2545464 178.4950288 -93.02401025 1.457329524e-38
252.4978 235.3677718 -151.0402795 3.047566321e-39
244.2179109 168.9749647 -82.66547278 1.558778067e-38
234.8539609 96.2998922 -8.263607701 6.277641958e-39
255.3353044 249.4458248 -163.7365249 3.599654094e-39
241.161906 139.5459844 -52.28950246 1.106824981e-38
241.161906 139.5459844 -52.28950246 1.106824981e-38
241.9449263 142.7732039 -55.59747531 1.134482409e-38
240.2473676 128.8761887 -40.71150259 7.93465357e-39
253.3887798 222.737096 -136.530318 2.399296224e-39
253.3887798 222.737096 -136.530318 2.399296224e-39
253.0740613 79.11294214 -100.3806296 1.346668143e-38
248.6096587 164.142067 -76.19853177 1.088493615e-38
272.9670732 6.582694498 -126.7444888 6.079173254e-39
245.4521032 135.8595239 -46.42548389 1.558820387e-38
245.4521032 135.8595239 -46.42548389 1.558820387e-38
248.1838821 155.2593712 -66.27329283 1.715196327e-38
242.6480597 112.0328993 -21.57458738 1.825804318e-38
248.0182122 150.0952943 -60.59982933 7.565164796e-39
248.0182122 150.0952943 -60.59982933 7.565164796e-39
252.6034823 181.3576474 -92.75983409 1.577151052e-38
247.6649409 142.327085 -52.79689605 7.841398558e-39
272.3859838 167.4234734 -92.29605161 1.595731569e-38
277.0332578 109.7212041 -80.51967665 1.899694085e-38
245.764855 114.1332781 -22.46986276 7.842819475e-39
254.0979872 173.1765948 -83.48000353 1.494134908e-38
248.2046524 128.4788828 -37.46728242 8.58282978e-39
248.6570222 121.7272134 -29.45992677 8.671882297e-39
257.8104428 187.0822393 -96.27992696 1.512573333e-38
259.2040783 190.1834856 -99.80870303 8.396256698e-39
247.7683303 98.1519418 -4.278447714 5.907033547e-39
247.7683303 98.1519418 -4.278447714 5.907033547e-39
251.4306115 103.5522985 -8.602039031 2.31400283e-38
260.734744 167.6446827 -74.64522555 8.119070053e-39
260.734744 167.6446827 -74.64522555 8.119070053e-39
257.9851153 134.8315185 -39.89535268 1.816825638e-38
258.836499 138.8138382 -43.84034031 1.60480918e-38
258.1180254 130.610145 -35.51946318 1.6784966e-38
253.1928809 91.5385886 5.258345956 2.268084662e-38
253.1928809 91.5385886 5.258345956 2.268084662e-38
263.2735778 162.8555706 -68.41890676 1.576939596e-38
263.2735778 162.8555706 -68.41890676 1.576939596e-38
261.7149376 148.4520999 -53.42757022 1.70601628e-38
275.6165039 250.978397 -158.504094 1.014302148e-38
262.1919165 148.7316969 -53.35200179 1.678427236e-38
275.3985265 245.884152 -152.8517756 3.874075977e-39
259.5366576 116.3582411 -19.10813192 1.927576562e-38
265.9660611 162.2570557 -66.61324155 1.512789414e-38
267.6880545 173.0271235 -77.48583109 6.920877189e-39
279.0553679 252.6903729 -159.1580514 4.058112709e-39
263.1790219 133.5514378 -36.44953727 1.042490247e-38
266.2265892 155.7975798 -59.61896366 1.56799735e-38
261.6571331 119.3803501 -21.68228839 6.462059842e-39
270.6765851 127.6699431 -98.0949754 1.383403603e-38
274.4448741 132.0213312 -72.76146547 7.288942244e-39
263.9898054 110.5959179 -10.99580522 1.254481622e-38
268.2647956 136.6843284 -37.67708692 1.706332273e-38
268.2647956 136.6843284 -37.67708692 1.706332273e-38
268.2647956 136.6843284 -37.67708692 1.706332273e-38
276.2124483 186.551823 -89.54826611 1.521793737e-38
275.1803247 175.6532123 -77.7397826 1.567926584e-38
278.6026897 198.2567117 -99.69282755 6.181874418e-39
273.7167056 161.0215836 -62.07259437 8.581791418e-39
275.4982345 152.8735019 -61.42245299 9.044193286e-39
278.5768352 191.7884532 -93.2808637 1.466438664e-38
269.9553805 123.4869233 -22.46236898 1.881586787e-38
267.6745684 121.7741551 -17.84466947 1.89999018e-38
275.765557 158.9006472 -59.09746178 1.623388296e-38
289.8037508 259.8248903 -162.5931077 1.845018222e-39
290.9188655 262.8963524 -165.6103168 7.564077388e-39
298.054071 459.2522078 13.91520017 8.210430509e-39
279.2105098 158.7484807 -57.04283344 1.641682948e-38
299.1038794 291.7042875 -192.9036108 1.226822652e-38
299.1038794 291.7042875 -192.9036108 1.226822652e-38
295.8846228 262.5909015 -164.1584142 9.255940694e-40
281.357289 154.3202622 -51.45202699 1.531190845e-38
283.5660196 161.4670649 -59.02733432 1.613916499e-38
287.0056066 184.3156871 -82.22081608 1.134482268e-38
276.552886 105.1490269 0.6838355721 7.654853503e-39
304.10891 296.120461 -196.1477513 9.87510302e-39
306.5813282 297.7782556 -196.9845665 3.974229581e-39
288.1160543 159.6811722 -54.55198872 6.830421972e-39
288.1160543 159.6811722 -54.55198872 6.830421972e-39
285.0292346 137.0552393 -30.69353383 1.226823073e-38
293.8589764 195.5160364 -91.33473213 1.466654744e-38
293.2730426 187.2943519 -82.26724536 8.855906417e-39
290.4575815 164.0630506 -58.79766037 8.580631142e-39
289.8833565 160.614244 -54.69325591 6.274751079e-39
289.6131427 156.5248441 -50.64615679 7.012300704e-39
312.5947316 299.5188483 -196.6316845 5.264957189e-39
298.1454663 194.5688095 -88.82601776 1.42049303e-38
294.9822 168.0609922 -60.72448656 8.304121324e-39
302.3379003 219.6853825 -114.2403106 5.721975269e-39
311.671504 286.1381087 -182.5888038 4.649998759e-40
302.9261397 216.9119495 -110.6450782 1.005553281e-38
285.6311746 136.6797239 -1.05053777 7.196013735e-39
312.5537297 280.5056322 -177.4111635 8.119781913e-39
300.9307424 193.7862128 -86.63536928 7.199613671e-39
305.2028161 220.7264697 -114.4331318 8.764433857e-39
316.9186015 294.5575721 -190.234986 4.3440911e-39
300.5808912 171.2167182 -61.97345245 9.499815673e-39
289.0132214 138.2474828 4.299786013 7.74812533e-39
301.3241239 172.9210526 -63.57756679 8.211980345e-39
303.6721518 185.5659268 -76.98956923 8.394922662e-39
303.999789 130.3749217 -76.54041928 5.998159986e-39
307.5371558 199.3960166 -89.80881123 1.484743546e-38
320.6931239 286.8877121 -180.4855485 1.201806812e-39
320.6931239 286.8877121 -180.4855485 1.201806812e-39
305.1982053 171.629613 -60.40812837 1.752287997e-38
354.6198743 311.9013007 -2.159590443 5.904516814e-39
307.4381702 168.9944598 -56.50130161 8.57924666e-39
299.0070271 102.3024914 13.69478548 2.28655924e-38
312.8483927 198.2406503 -86.61159057 1.549486618e-38
301.9133015 116.110043 -0.0502649462 2.314073736e-38
320.8649351 248.4593415 -138.3713328 7.19926755e-39
332.4066275 347.8023037 -228.9239736 8.217386555e-39
313.209537 190.9123233 -78.75764619 1.733698932e-38
309.5600328 164.8797018 -51.24251488 6.643215504e-39
312.2880902 182.6573129 -70.13485085 1.632498278e-38
316.2239962 193.8461292 -79.73972622 1.531014141e-38
314.4805482 196.3641728 -72.86406199 1.060856646e-38
306.8936843 115.0554953 3.682355861 7.01123852e-39
306.8936843 115.0554953 3.682355861 7.01123852e-39
325.1488771 234.5655764 -119.9202291 2.118731048e-39
319.3392041 188.0723852 -72.71406082 9.040980109e-39
323.9839519 267.4081809 -112.6354905 3.959395436e-39
339.0461083 320.9844539 -210.5837532 8.766242933e-39
339.0461083 320.9844539 -210.5837532 8.766242933e-39
329.3481482 229.9287424 -117.2603582 2.761580923e-39
311.9142109 152.5294941 6.575984811 7.564451535e-39
311.9142109 152.5294941 6.575984811 7.564451535e-39
345.0181192 380.2939931 -97.01750117 2.489643541e-39
341.1508141 299.1040186 -185.8783517 4.616367596e-39
315.6549802 120.2182592 1.629618566 2.277268071e-38
315.6549802 120.2182592 1.629618566 2.277268071e-38
316.6210632 113.3236188 10.31889552 7.19459422e-39
316.6210632 113.3236188 10.31889552 7.19459422e-39
338.5840384 237.5436684 -119.6446428 1.38840778e-38
340.5901241 243.1319145 -128.4972502 1.199996335e-39
335.2254103 201.8222869 -81.3152725 1.448404794e-38
342.0519345 245.3010978 -126.7803485 1.078798451e-38
342.0519345 245.3010978 -126.7803485 1.078798451e-38
340.3766094 231.7034343 -111.6351421 1.199629195e-39
344.6633283 238.1078651 -118.1950692 1.269957702e-38
331.9832923 156.2833576 -55.65818508 1.512690622e-38
335.8499589 177.6976928 -53.60853443 1.512689501e-38
339.8370554 200.9238453 -78.23707118 7.19711936e-39
343.8588198 225.3019924 -103.9887547 8.576079725e-39
335.3173046 164.2495611 -38.76748508 1.503437148e-38
335.3986414 164.3176837 -38.92840009 1.540314699e-38
349.0775336 246.7919099 -125.4452659 8.853307008e-39
349.0775336 246.7919099 -125.4452659 8.853307008e-39
348.8142745 238.6939609 -116.6817405 6.796185448e-39
334.7505434 123.9895985 5.814383157 2.286523087e-38
334.7505434 123.9895985 5.814383157 2.286523087e-38
342.4410966 175.9818013 -49.00451451 7.199860299e-39
342.4410966 175.9818013 -49.00451451 7.199860299e-39
333.5993343 110.767277 20.30562502 2.304854873e-38
333.5993343 110.767277 20.30562502 2.304854873e-38
352.6303762 237.7776608 -114.2929249 1.224220161e-38
346.1909739 188.7495882 -61.91182357 1.47581181e-38
347.4678603 195.7762859 -64.0103308 1.540556843e-38
356.8960801 255.6916299 -130.8553591 9.230465088e-40
349.6581915 206.1807056 -79.59469057 1.466619852e-38
345.6684748 175.1374507 -46.86512323 7.844253003e-39
355.4986984 239.9632451 -115.2665626 7.717777409e-39
357.5162293 243.6746166 -118.98358 4.59753975e-39
352.4985613 208.2230627 -80.71779305 1.540558525e-38
358.5211357 239.7527243 -114.150156 1.159034979e-38
351.9895515 192.6458921 -63.95515581 1.549594938e-38
351.9895515 192.6458921 -63.95515581 1.549594938e-38
371.3054759 315.7465287 -190.8357157 9.508391619e-39
344.5229607 201.6340995 -47.57825318 8.029623771e-39
355.1205591 197.5544389 -68.38025563 9.042640647e-39
355.1205591 197.5544389 -68.38025563 9.042640647e-39
363.6725683 250.0123978 -123.5332867 1.661331815e-39
362.6391346 240.7263645 -113.3989384 6.616108786e-39
352.7126648 170.8706667 -38.77507458 2.13904399e-38
375.2980076 308.5719928 -183.3073704 4.432322457e-39
358.8795771 195.4204018 -63.93093465 1.641825881e-38
360.1039113 271.1853203 -106.2167535 3.956511563e-39
367.9178562 250.019578 -121.4199913 8.669634614e-39
358.1868131 179.6931086 -48.39127016 1.623314728e-38
386.0644233 343.5397541 -88.08058636 3.038484506e-39
368.8405482 242.9995457 -113.5250229 3.401148956e-39
367.41945 237.087467 -113.2333286 5.144224116e-39
362.0153042 187.1869199 -52.67852826 7.750290336e-39
362.6987456 181.4283411 -44.5950562 8.121108942e-39
378.9720399 286.8000982 -157.5182389 7.433902366e-40
411.2083315 288.4118045 -179.6858106 1.336479302e-38
360.7232018 146.9944527 -44.45673201 1.890438509e-38
363.111976 170.3683635 -33.86381407 7.657321189e-39
355.1600156 115.6853795 24.42763093 2.323293859e-38
355.1600156 115.6853795 24.42763093 2.323293859e-38
368.8909653 208.6489101 -73.93284456 1.567853857e-38
392.345635 481.2679147 -105.4564589 1.069436096e-38
333.9874172 188.0763913 7.805151756 6.184655996e-39
368.2751918 196.8584491 -61.86092127 7.289316391e-39
368.2751918 196.8584491 -61.86092127 7.289316391e-39
365.5603663 172.6517275 -35.12965904 7.286370861e-39
386.3244943 213.1199759 -133.360913 7.107799194e-39
366.2274378 170.7511967 -32.54041863 1.503508754e-38
367.5292938 176.0793846 -38.47408529 7.659479189e-39
437.3090144 295.3856101 -135.6393972 1.807032103e-38
369.9316293 172.2157059 -32.52405537 1.512829491e-38
374.4026879 200.1430173 -62.6468097 1.549318602e-38
377.0265963 379.0480432 63.80868366 1.650806662e-38
375.9538001 201.3743911 -63.29905888 1.531017364e-38
385.1457711 253.0783557 -117.6888001 7.932079385e-39
367.0824053 127.7235427 17.60336118 7.287504512e-39
367.0824053 127.7235427 17.60336118 7.287504512e-39
379.8227888 210.2703077 -71.35502547 7.198506645e-39
344.1469489 127.4040086 16.56928832 1.862886459e-38
381.2291421 205.8861692 -65.74957468 8.671386237e-39
379.9720704 186.4434101 -44.06354609 1.5679647e-38
379.9720704 186.4434101 -44.06354609 1.5679647e-38
394.8781141 283.509542 -148.0895123 6.733595051e-39
379.5316165 180.1836174 -37.34413549 1.549667105e-38
379.0873768 176.2183752 -32.82339437 7.291048396e-39
379.0873768 176.2183752 -32.82339437 7.291048396e-39
384.6453294 199.2722807 -56.95226307 1.623279135e-38
387.0376562 96.62828753 -29.13695266 1.908984414e-38
391.5488933 215.7505204 -72.55547771 1.614169154e-38
388.4854318 176.4294786 -29.35554605 1.844083556e-38
388.4854318 176.4294786 -29.35554605 1.844083556e-38
394.6561692 170.1732263 -18.4747988 1.088314529e-38
425.21218 330.1573915 -185.4473467 2.767352871e-39
418.319455 276.4892532 -129.538254 3.962283512e-39
486.6880079 225.6609577 -106.1117868 1.668669154e-38
439.2086691 334.4271553 -187.677152 3.227612154e-39
441.4074607 331.1972381 -182.1292129 1.797927026e-38
441.4074607 331.1972381 -182.1292129 1.797927026e-38
439.3477281 308.5886564 -156.7002038 1.871538916e-38
447.3145495 318.2863149 -164.6531874 1.816294406e-38
452.5575813 335.9318134 -183.8963986 3.228689753e-39
441.8184708 264.5174295 -106.037917 5.620001378e-39
444.0323982 275.6064079 -115.6481015 4.238873204e-39
446.6266015 292.0649724 -132.9834 5.065747198e-39
447.4770539 292.9754175 -134.8758709 4.697324812e-39
447.4770539 292.9754175 -134.8758709 4.697324812e-39
458.3386487 333.9422941 -178.7081332 1.81643916e-38
455.3585527 310.7413875 -153.3031209 1.926928041e-38
454.2020374 292.4217438 -130.2809057 6.998977158e-39
451.9973154 277.1997866 -114.2231853 1.52918979e-38
455.4100835 292.8987517 -131.7592217 6.906421394e-39
401.1358182 123.4583142 39.65829739 5.077613393e-39
460.5740691 312.4724039 -152.8360353 2.675856489e-39
460.5740691 312.4724039 -152.8360353 2.675856489e-39
460.0731607 299.8192907 -137.6421847 4.974281645e-39
458.388298 288.9665027 -126.0135341 1.483597003e-38
461.303494 295.3449828 -131.7804316 9.211314944e-39
456.0109569 257.7871909 -90.15122152 1.142689113e-38
464.9189977 312.5240369 -150.8576692 1.982208144e-38
464.9189977 312.5240369 -150.8576692 1.982208144e-38
461.4130097 290.8229261 -126.053509 9.396420866e-39
457.6639945 261.5676275 -92.86607226 6.449045983e-39
463.7737385 296.634499 -132.8270862 1.594232039e-38
463.7590206 294.0201544 -129.2687156 1.640293421e-38
460.1756479 260.8046215 -90.98170193 1.760615353e-38
460.1756479 260.8046215 -90.98170193 1.760615353e-38
450.5105347 197.5702591 -20.02831258 5.993474044e-39
466.5187032 293.81467 -127.3620929 1.870746342e-38
466.3604562 291.5135479 -124.9907746 1.11467015e-38
467.1949177 296.7133435 -130.5864652 9.765211793e-39
474.8570053 339.817044 -179.2587951 3.136495524e-39
474.8570053 339.817044 -179.2587951 3.136495524e-39
475.201556 330.6885438 -168.2969752 1.78002726e-38
465.2405894 266.6350361 -96.17740933 6.169942362e-39
453.7734633 195.0140206 -15.62773285 1.92660322e-38
466.7814927 274.3414504 -103.6405973 6.631646384e-39
470.1302746 293.2651426 -125.4252608 1.179170657e-38
472.7122954 301.0649083 -133.9058062 8.564879146e-39
463.2060346 223.6534397 -12.96223814 6.176770889e-39
478.1964245 316.7181264 -149.8344429 4.243553541e-39
472.9057656 281.3681743 -109.748513 7.736550605e-39
473.0204565 275.9907519 -103.1259955 7.645432573e-39
478.2352294 304.054802 -134.5538294 4.698408016e-39
460.6096701 195.9203909 -13.29403043 1.641014108e-38
479.0700416 305.4890433 -136.4137944 1.308964386e-38
469.8013696 528.5555873 -18.95358933 6.086380132e-39
478.2733511 362.8006674 -145.9063681 6.454096263e-39
472.233546 259.5376944 -84.13875578 1.64958473e-38
477.0468942 288.5824794 -116.3902206 1.225304626e-38
479.4235891 299.60098 -128.6508396 1.797351233e-38
483.2921461 319.7035137 -151.1159243 1.899270333e-38
475.8834848 272.0609927 -97.28898618 1.76922381e-38
478.3730744 287.0968582 -113.4658805 1.759822778e-38
485.4093864 316.4575692 -146.6573964 4.425786801e-39
513.7501619 203.6635693 -134.3253368 1.733173164e-38
481.7246271 288.3568201 -114.3975828 1.501963822e-38
484.337461 304.2836813 -131.4495363 1.622217511e-38
492.2376486 342.7166755 -175.0580309 2.952462997e-39
489.4473928 319.4789268 -148.6024982 7.468604121e-39
487.0246164 302.500306 -129.0503321 1.788312157e-38
489.346578 316.5505865 -144.801757 1.788598302e-38
485.0026464 288.0183584 -112.5215367 1.502072423e-38
491.5599251 318.5944758 -146.0797016 7.652275114e-39
486.7375229 286.4815055 -110.3712821 1.861779573e-38
497.4904037 340.4461865 -169.4334271 1.834733672e-38
492.7366055 306.138226 -129.7436665 4.144869899e-39
525.0135012 216.9645004 -145.3229459 1.558146082e-38
534.9981532 374.7710216 -78.63566387 6.178200214e-39
499.6087913 319.8527811 -144.2434309 8.666429845e-39
501.2583936 318.9272284 -142.0795244 1.83473199e-38
506.3700988 345.0980987 -171.6839603 3.22868695e-39
494.6269336 255.9800183 -68.53700514 1.575935986e-38
503.578395 308.8168966 -129.0051103 7.278812257e-39
499.117692 280.5222744 -96.80344915 1.917385058e-38
511.1643842 342.6803442 -166.3143903 1.844097148e-38
508.683336 320.5397161 -140.7524151 1.908488214e-38
511.0946031 330.9023634 -152.5686543 1.871612064e-38
514.663056 342.0398239 -164.0105799 1.662441644e-39
505.1596747 281.3584601 -94.97998709 1.566861457e-38
513.4227123 329.6141393 -149.2484019 4.243550738e-39
514.5707512 335.414511 -155.9663915 3.412720879e-39
509.4344596 140.8485884 -92.26535861 1.198508576e-38
509.4344596 140.8485884 -92.26535861 1.198508576e-38
505.3156028 272.3114971 -83.82106966 1.935427476e-38
511.300172 307.5891193 -123.9853684 8.102075105e-39
510.8220487 355.650658 -139.6998933 6.730684554e-39
512.9519659 299.9579571 -113.467873 1.797062425e-38
512.9519659 299.9579571 -113.467873 1.797062425e-38
503.2082322 242.9362108 -47.52841405 1.446827352e-38
505.514418 255.6912037 -61.80327176 1.787339376e-38
505.514418 255.6912037 -61.80327176 1.787339376e-38
499.5156655 206.9664034 -6.50792128 1.770156934e-38
516.5599283 304.3844729 -118.5641725 1.087083768e-38
517.5826985 308.9462222 -122.5451914 1.824683699e-38
521.9765154 333.919107 -150.4878312 5.626132059e-39
503.6880987 223.4488231 -6.177145855 1.880647777e-38
524.2240428 339.7652499 -157.5495701 5.993478247e-39
519.4561983 299.1590027 -109.8853675 1.87082005e-38
523.5785626 309.2170793 -120.0824724 2.018656337e-38
525.0356144 312.7660073 -124.1235912 7.27521092e-39
525.3986319 455.5073042 -96.98221708 2.582911165e-39
520.8677712 283.9050581 -90.4435082 1.437678835e-38
518.5120702 260.2851396 -62.01895073 1.391761087e-38
523.6658392 286.3308067 -92.04152305 1.861670692e-38
518.193575 253.1719362 -52.73595896 7.006895896e-39
527.3650122 350.545434 -139.7888859 5.532853225e-39
534.3634356 345.7238446 -159.3353074 2.586551738e-39
528.1472398 297.8039408 -107.1735687 1.216229116e-38
533.5426265 326.9578237 -137.721225 9.03520816e-39
532.2487248 313.3475688 -121.4342839 8.015289889e-39
530.5818537 303.4155786 -110.1287996 1.677134678e-38
534.8093678 304.3399951 -108.7612736 1.050240268e-38
534.8093678 304.3399951 -108.7612736 1.050240268e-38
527.2040475 255.922028 -51.97499143 1.345376006e-38
527.2040475 255.922028 -51.97499143 1.345376006e-38
532.7087668 287.3809587 -89.25457878 9.397502668e-39
544.3423607 351.572232 -163.245442 3.226894689e-39
535.6569311 285.259632 -84.91049513 1.667735749e-38
535.5461631 282.181762 -81.16430954 1.123852999e-38
536.848868 284.1922663 -83.33206231 1.594087145e-38
536.848868 284.1922663 -83.33206231 1.594087145e-38
548.5762269 349.3713145 -157.9036759 1.770448404e-38
542.6787467 310.6695232 -112.9203049 1.788311877e-38
540.1259798 296.306444 -96.15748096 6.080271872e-39
541.8326389 300.8348041 -101.4905835 9.585853997e-39
543.3198822 297.3169208 -96.38405484 1.686715916e-38
541.5443355 284.9733444 -81.69541175 1.345266284e-38
546.2302495 312.1219198 -111.2249587 1.345628099e-38
551.8723461 340.5849156 -145.3850095 1.816366433e-38
631.5060551 351.0992803 -187.0030858 5.169499336e-39
544.7145576 286.9981977 -82.72048489 1.216264289e-38
544.7145576 286.9981977 -82.72048489 1.216264289e-38
550.0519873 309.7035561 -107.9215356 1.234740129e-38
534.6493478 217.5079775 -0.4266468347 1.807323573e-38
551.2712577 305.0925455 -102.6068533 1.64029314e-38
562.0597228 351.3591906 -153.7217056 1.755721878e-39
562.0597228 351.3591906 -153.7217056 1.755721878e-39
552.537746 286.7586458 -78.54974985 5.250860126e-39
556.0971782 305.8402882 -100.9202539 9.398941801e-39
565.7463321 352.8376665 -154.1551143 1.770556444e-38
622.5173905 322.682485 -153.6127858 4.80323495e-39
556.6458762 391.9452934 38.58442339 4.243529719e-39
543.0976289 218.8705615 2.064578593 1.429069958e-38
543.0976289 218.8705615 2.064578593 1.429069958e-38
561.0347547 316.6756215 -110.772057 1.631290639e-38
544.5193019 219.9932343 1.387988286 1.834658702e-38
559.2934261 301.3788941 -93.58464007 1.51176044e-38
562.0776868 316.1625844 -110.5618244 1.658949328e-38
565.2779361 331.9332668 -128.8937714 1.963698673e-38
565.2779361 331.9332668 -128.8937714 1.963698673e-38
560.7265268 301.4663619 -93.01313562 1.539419129e-38
571.0134361 356.9655457 -157.1284136 3.321239911e-39
609.9922018 318.0299931 -120.9618335 1.676951388e-38
562.8876015 296.0949109 -85.00663234 1.308497193e-38
567.2083596 295.450079 -80.66995975 4.42433926e-39
575.6311152 333.463267 -125.9277968 1.871538075e-38
575.6311152 333.463267 -125.9277968 1.871538075e-38
514.8436766 221.3447035 48.8469239 1.733207216e-38
588.1579644 359.3390712 -146.6552505 3.689653889e-39
585.5608666 303.8230535 -83.40105567 1.438075262e-38
585.5608666 303.8230535 -83.40105567 1.438075262e-38
582.2606924 283.5417561 -58.38565943 7.740507872e-39
586.5325816 291.6524121 -67.58118017 1.207368706e-38
635.7916417 404.0906057 -140.9564914 4.341907877e-39
589.1942553 303.5794725 -81.57968361 3.133604645e-39
589.9610668 301.7006454 -76.94181792 3.13540111e-39
589.4690367 280.9036257 -51.58286494 7.833419565e-39
608.5600591 362.1335956 -146.3363234 2.193013319e-38
608.8161087 350.1690434 -131.1584214 1.540570296e-38
608.8161087 350.1690434 -131.1584214 1.540570296e-38
611.9030259 351.574018 -131.7305693 7.93895976e-39
600.6508557 388.1408072 -37.78340067 1.244160778e-38
615.9599298 351.5056711 -133.1952613 1.199990589e-38
612.9077294 325.1072657 -97.1970833 1.134001623e-38
610.7963265 307.7884353 -75.87521675 2.083690039e-38
614.2374911 318.4900091 -88.32974731 5.171602685e-39
611.7883605 304.0141907 -71.15990955 2.111312014e-38
611.7883605 304.0141907 -71.15990955 2.111312014e-38
613.9828908 313.0439355 -81.39608903 2.065180287e-38
616.4006892 324.8826549 -94.92710307 1.880971196e-38
617.5150192 329.7839568 -101.3498665 2.000786279e-38
611.2615604 313.0928497 -69.73208824 1.502823379e-38
578.8264875 399.59864 26.89373597 1.760527211e-38
619.8718901 333.9727494 -105.6125617 1.585718451e-38
617.4462474 318.1282116 -86.58309399 1.798571484e-38
617.4462474 318.1282116 -86.58309399 1.798571484e-38
619.8698242 326.2127092 -95.53130137 9.221356648e-39
616.0636785 306.1417488 -71.33092266 1.235347592e-38
619.7161841 321.0429359 -88.79141645 2.019227927e-38
616.6473157 301.8022545 -65.12076168 1.235708006e-38
616.6473157 301.8022545 -65.12076168 1.235708006e-38
622.599752 323.0311308 -90.14223389 8.667475213e-39
622.599752 323.0311308 -90.14223389 8.667475213e-39
619.871333 304.1269017 -67.24214082 1.982600227e-38
666.5633968 441.5466578 -129.2760761 1.733387983e-38
622.164111 308.428933 -71.42832974 2.037593345e-38
628.5045471 339.3165079 -108.5243039 1.309104936e-38
620.4238254 294.4575776 -53.76130012 8.669603786e-39
621.3287826 296.915901 -57.07450547 2.203472891e-38
619.7397762 288.9965611 -46.98661421 2.322444953e-38
622.6848132 302.3678799 -63.37262196 2.056211977e-38
622.6848132 302.3678799 -63.37262196 2.056211977e-38
621.6393417 292.973747 -50.92799129 1.82528878e-38
625.4896359 311.265567 -73.59866574 1.346197447e-38
624.0375254 299.1502864 -58.42125612 1.042242217e-38
629.1519557 322.3529098 -85.56502913 1.143260422e-38
629.1519557 322.3529098 -85.56502913 1.143260422e-38
626.0086842 305.6593284 -65.536418 1.023874277e-38
632.2699227 337.0837654 -104.0197468 1.429067996e-38
629.2047418 318.5314815 -79.76901444 1.982383867e-38
625.0978738 296.8870198 -54.64807034 2.028408534e-38
631.3205478 324.4535903 -91.94860141 2.019154359e-38
621.1729426 570.6620296 -50.87329647 1.309793955e-38
634.9238201 335.502845 -100.7575619 8.948027778e-39
636.847286 343.5437388 -110.3399546 1.116108863e-38
633.9517664 296.0281986 -49.94395671 2.212360347e-38
629.6991633 298.9001452 -54.99825658 1.57018856e-39
630.6125513 301.0476143 -56.95817646 1.853527607e-38
635.5670875 323.994186 -84.72992272 2.000679079e-38
637.1049033 325.0062012 -85.45608755 2.07439971e-38
615.4415968 353.6812743 -5.71871865 2.083503806e-38
642.7695392 351.1301868 -116.9649411 2.028005661e-38
645.9543065 363.5588199 -131.3445661 7.831520805e-39
640.7365682 335.4303652 -96.76357832 5.811986274e-39
637.1044509 299.1779331 -50.2323879 2.767308029e-39
637.1044509 299.1779331 -50.2323879 2.767308029e-39
647.0475787 348.9546553 -112.0843831 1.95472798e-38
634.0113385 281.1025218 -29.22495934 2.349920492e-38
638.423002 302.3553081 -55.20050254 1.81671942e-38
635.4261109 285.6946418 -34.73476284 2.858417653e-39
691.7988338 336.5522059 -106.1150773 1.871924133e-38
674.2424956 330.5462594 -127.7608981 1.68655785e-38
646.0138179 332.9668476 -91.32164636 1.595417818e-38
647.6077088 340.7735429 -100.7223755 1.77033616e-38
646.2083059 328.5132979 -85.08175473 2.028668195e-39
644.6882577 317.245168 -72.04246548 2.398529714e-39
644.6882577 317.245168 -72.04246548 2.398529714e-39
635.0357715 265.6384048 -7.440871175 3.043508161e-39
653.4131137 358.8194774 -121.3209323 6.723721502e-39
649.595707 334.3036653 -93.62606091 4.8925383e-39
633.7972635 247.7229204 12.76862425 2.350605447e-38
647.1845333 309.1074999 -58.05021856 2.046884234e-38
657.5286844 360.9435984 -122.706783 2.1194778e-38
625.5480965 283.7521653 -95.52795085 8.483043316e-39
643.1555028 268.3310646 -6.826031976 3.598477003e-39
642.7844527 265.5927601 -3.144491303 2.267458421e-38
662.1592684 363.4326758 -123.5606302 4.878043269e-39
653.2353917 316.3131831 -65.33796296 2.494653183e-39
646.8273051 301.3950384 -35.40851579 2.074471597e-38
662.121643 360.0654774 -119.3418612 8.652628456e-39
649.0425325 291.8033236 -34.62171238 2.046813048e-38
660.4948481 349.0013507 -104.3561978 1.503583163e-38
659.0090975 339.374325 -93.31994988 1.96423523e-38
658.1939933 333.7919197 -85.78908264 1.853312087e-38
664.8627897 359.1967883 -116.0938884 2.147026347e-38
664.8627897 359.1967883 -116.0938884 2.147026347e-38
664.8627897 359.1967883 -116.0938884 2.147026347e-38
652.4237014 372.2624563 30.46348704 7.647876438e-39
654.3085236 305.2288088 -49.66827575 1.384362371e-39
652.6729737 440.3557356 26.40767931 2.123376353e-39
654.1132814 302.1413246 -46.68805523 3.873637371e-39
652.5058248 290.3448938 -31.4600768 1.844978985e-39
650.3402747 276.1831219 -13.06145061 4.055144758e-39
664.9833204 349.4700426 -102.9506976 8.211917287e-39
669.7363606 365.1070389 -121.9216404 5.984018082e-39
670.0279616 361.6728522 -117.7096987 8.747696748e-39
661.1481688 315.7830848 -60.53898606 9.132050496e-39
654.9152368 283.1263779 -20.12082673 1.61225498e-38
688.4719249 399.0178101 -82.26046954 1.88089945e-38
656.2248423 287.106885 -25.06929221 2.138757845e-38
661.5034516 312.0126392 -54.80710121 2.000823273e-38
656.2554011 284.3217185 -21.70086902 2.212041551e-38
663.0831643 314.2692682 -57.32705849 5.626822899e-39
678.390287 321.9621304 -90.34652525 1.05095381e-38
670.459592 346.7623352 -97.4788046 1.788813261e-38
653.3098403 255.4908477 16.77413499 2.35053328e-38
675.6623768 361.5693275 -114.2320311 2.202231481e-38
668.1338388 257.0319912 -22.99308514 4.424618118e-39
668.1338388 257.0319912 -22.99308514 4.424618118e-39
670.8350234 336.9906986 -83.60932329 2.037630619e-38
676.683459 366.6835166 -119.9384714 2.183828929e-38
660.4312058 284.4101728 -18.30387134 1.419299685e-38
666.2772425 312.8380644 -53.7418352 4.988661769e-39
665.7898137 309.5345858 -49.61051685 2.065181268e-38
657.2113233 266.3519188 3.919964176 2.175335519e-38
674.8138375 351.5221031 -100.5890746 1.834982963e-38
671.5889441 330.3334666 -73.55805411 1.99149595e-38
671.5889441 330.3334666 -73.55805411 1.99149595e-38
663.700541 280.7774485 -11.26471306 3.59595887e-39
663.700541 280.7774485 -11.26471306 3.59595887e-39
669.6805588 306.7995432 -42.93679 2.859135118e-39
665.0480402 391.0770415 32.00675889 5.07183584e-39
684.5176614 370.9401837 -122.5023827 4.603254245e-39
684.5176614 370.9401837 -122.5023827 4.603254245e-39
673.4440348 314.4109616 -51.44418696 2.501550374e-39
681.8874771 354.7152037 -102.1784552 1.816759357e-38
675.129406 311.483451 -46.9954275 2.083800601e-38
684.1802723 353.4069147 -98.4753551 1.724421355e-38
683.2299656 344.9923368 -87.33345734 1.954728261e-38
679.1286326 319.4343071 -56.00747365 2.000751246e-38
670.7036458 273.7755445 2.667608897 2.349991398e-38
679.5877262 315.7639932 -50.02955643 3.788690658e-39
690.0355342 362.861164 -110.3567109 2.183900675e-38
684.4197617 329.8718699 -66.04189474 2.031891181e-39
683.9403224 316.0911224 -47.83331459 1.881079377e-38
686.2737835 326.0569765 -61.04895253 2.122649079e-39
679.7625141 293.3669756 -19.47813617 1.493566822e-38
684.8035332 314.1290126 -44.46296047 2.065180007e-38
687.1273407 323.1529261 -55.32196283 2.009899623e-38
690.9699477 338.1062102 -73.28506022 2.028266302e-38
687.4405904 319.6074501 -50.23654758 5.634772465e-39
689.783566 330.4443811 -63.95388777 1.945614916e-38
692.4428743 342.3487444 -79.02066134 2.120847009e-39
647.0058915 449.4048966 100.3839904 2.000716915e-38
687.1696726 313.4107374 -41.82269399 1.253895458e-38
710.9127619 343.9902763 -86.44935519 7.92880455e-39
694.1670707 342.2797427 -77.12897809 2.950251748e-39
694.1670707 342.2797427 -77.12897809 2.950251748e-39
702.6989425 381.068287 -125.9784542 2.156134507e-38
684.2692067 284.5022694 -3.592119347 2.304005967e-38
698.2083254 351.6300434 -87.42539358 1.087943465e-38
691.5971846 315.3202164 -42.13465873 2.02844749e-38
699.1752401 342.475593 -73.79836935 2.57966856e-39
703.6989217 360.2981407 -102.8627575 1.834359525e-38
698.6396995 331.3215336 -62.7596132 2.029024124e-39
701.2180293 346.3920019 -78.8913961 1.973093538e-38
699.4778346 320.3152703 -47.41946958 1.982275546e-38
706.8585339 357.8738354 -92.52868702 1.945255343e-38
706.520638 334.6558479 -59.68270591 1.844019797e-38
710.8057731 354.333134 -84.84942806 1.410116275e-38
702.9860934 314.8338044 -33.72380311 1.853347119e-38
696.1645681 282.8968049 7.467537961 5.531698555e-39
708.2816784 333.1359939 -55.90398747 2.581847579e-39
714.9360616 362.2655773 -92.49847444 1.281479738e-38
700.163506 286.6746975 4.32689754 2.331197883e-38
707.9705851 320.7393539 -39.97282216 1.788846192e-38
700.257771 279.8514652 11.08729926 2.349600856e-38
706.1139006 307.2099133 -21.98672668 2.492517604e-39
699.0195224 273.4701645 21.2606398 2.349885179e-38
699.1449678 273.9520755 21.2641705 2.349921613e-38
711.0052451 320.0123908 -36.54450774 2.401402376e-39
717.0335044 348.3400322 -72.73301605 1.216760208e-38
717.0335044 348.3400322 -72.73301605 1.216760208e-38
711.9177782 323.0643386 -40.69914784 8.21406828e-39
713.5885198 354.4405233 30.53673308 5.899046145e-39
715.1764056 332.0552436 -51.11193105 1.982385969e-38
725.0417327 378.3348538 -109.6138425 2.950932779e-39
725.0417327 378.3348538 -109.6138425 2.950932779e-39
724.7303622 375.1190869 -105.2443658 6.354590059e-39
709.2753468 301.7813675 -11.74384287 2.056032331e-38
721.0440683 356.4381716 -80.63242547 1.95443637e-38
718.3787687 108.6277645 -99.80203362 1.512003285e-38
716.5030897 324.355025 -38.856785 1.650373941e-38
723.7751432 357.5241002 -81.49444885 1.410375936e-38
723.7751432 357.5241002 -81.49444885 1.410375936e-38
713.3125806 306.9206874 -16.77681925 1.39233604e-38
708.0904591 279.2955883 17.97097041 3.685298653e-39
730.7702241 387.5244666 -119.223805 2.146877109e-38
730.7702241 387.5244666 -119.223805 2.146877109e-38
702.3200421 248.3108195 58.56720516 2.194135339e-38
702.3512037 248.7023647 58.55720302 2.258745007e-38
720.5195421 413.0551048 33.70375779 1.991641685e-38
732.5252025 377.256253 -103.5854411 6.99922799e-39
727.2058786 344.6743456 -61.17911348 1.825473471e-38
715.8079354 289.5143377 9.07458969 2.102202312e-38
715.3881466 281.7102592 19.86038232 2.185142226e-38
720.5291994 298.7725412 0.0866571153 1.493823119e-38
725.8588048 317.8286111 -24.01551101 1.042278791e-38
718.7763507 283.9386668 19.38690454 1.2815896e-38
722.3678139 299.7098475 -0.4276118747 1.10688944e-38
728.688388 323.8508916 -30.81483225 1.337053554e-38
734.528258 350.8652344 -65.43545537 2.092587443e-38
737.9688059 365.2405463 -83.11000885 1.538791487e-38
727.5909109 313.7203609 -17.25852567 1.954583647e-38
736.7114323 353.7524832 -67.68050748 1.179738604e-38
722.1535502 284.3069873 21.59789888 2.092839256e-38
729.6552484 317.745401 -21.64804408 2.028374763e-38
726.7338477 306.4930358 -3.007671433 1.98241946e-38
722.9202104 283.2062101 23.41800578 1.143040138e-38
744.8955068 379.895908 -100.111961 9.482014978e-39
737.2707987 344.1853312 -53.96545218 1.89000761e-38
736.3475774 326.6429345 -28.44882935 1.568759236e-39
741.8438352 351.2878816 -60.47819057 1.770226999e-38
741.4546861 344.1569594 -51.38902593 1.110995665e-39
729.4601512 287.927289 20.51083625 1.80721189e-38
729.2597605 285.6517862 23.89269209 2.046555349e-38
748.1924567 454.5111364 -43.0487982 1.041881803e-38
741.8273049 342.2659053 -48.25060768 1.392147985e-38
737.2610039 319.3131584 -19.41184168 1.937904692e-39
742.4291105 342.5189826 -48.44370822 1.189424799e-38
752.9495985 388.2006019 -107.1024888 5.342245806e-39
752.9495985 388.2006019 -107.1024888 5.342245806e-39
746.4474376 356.9224695 -66.8023854 2.672557832e-39
751.8854523 381.773002 -98.69543746 9.576365805e-39
707.0750479 525.1856244 -6.864149867 9.4064948e-39
750.5938351 272.8623787 -129.8311547 1.622638742e-38
744.675858 347.3973496 -53.86294397 2.123344123e-39
731.1850424 283.8643688 27.64739902 2.110914185e-38
732.2521831 306.9210622 -1.020319931 1.032805313e-38
755.2517484 384.204415 -100.2060637 2.137592105e-38
747.1490779 342.7742207 -46.33392383 2.032233098e-39
752.4560031 367.3231748 -76.66714722 1.806815743e-38
751.3302887 351.1579753 -55.32435794 1.410515225e-38
756.7265839 351.105581 -108.5744076 5.708867523e-39
754.7313197 361.5618143 -68.21850894 2.21130601e-38
738.0625327 283.7414254 33.09848914 8.394463036e-39
749.7116877 337.2105171 -35.368456 2.248292161e-38
739.7571847 307.998542 -32.60885819 2.22122398e-38
756.7591964 352.0434316 -53.14348515 1.846402705e-39
750.4406375 322.8205072 -15.44077233 4.331339284e-39
744.8776183 292.7361501 22.8080113 2.121574283e-39
744.8776183 292.7361501 22.8080113 2.121574283e-39
743.0503957 287.5268887 31.19332353 2.00089586e-38
756.5965035 346.8544442 -45.70458146 3.961493179e-39
722.0355412 330.5039678 15.09787835 3.957897448e-39
748.85467 307.9206481 4.883608155 2.083178565e-38
746.0045873 289.768223 29.35917569 5.257992735e-39
749.2779387 305.2982702 10.14797475 2.214114632e-39
763.4140179 368.491254 -72.64746721 1.788485918e-38
758.3343862 334.6850072 -27.17290182 2.118316264e-39
761.789504 347.7233884 -43.94484307 1.569109561e-39
759.4444361 333.5116639 -24.07402572 1.844971979e-39
758.6686562 329.2892329 -18.56479056 2.581442604e-39
759.1991253 259.3538756 -22.54137565 2.147863763e-38
771.1234247 379.1354974 -83.65774387 1.880717842e-38
753.8995854 297.4496894 24.14354734 2.037370678e-38
760.6629033 323.3151829 -8.522368585 5.71716321e-39
755.6119205 295.780043 28.34936385 3.135003141e-39
763.2171008 329.3117954 -16.30442867 2.248293563e-38
762.9813691 327.3324821 -12.24164926 1.926733681e-38
779.6544152 397.0423245 -103.1793559 2.211305589e-38
758.7449914 300.1904804 24.15903953 3.876484809e-39
777.6218509 379.037528 -78.47616444 2.037161324e-38
778.0531835 375.3443776 -73.19662345 2.009538509e-38
776.1634338 359.4398044 -51.72607566 2.229779607e-38
773.1647829 344.8051832 -31.07464187 2.239108472e-38
756.6553702 269.9653646 67.080894 1.391453642e-38
768.0892482 318.3765492 6.504121613 2.285241319e-38
769.0952487 306.9666617 18.32181953 2.303608418e-38
785.4397426 379.9655137 -74.33332875 1.069250984e-38
800.0139881 183.1635309 -39.81210708 5.254440444e-39
781.765475 289.1710331 55.81014506 1.401010357e-38
800.2084016 307.4845907 -108.6486352 7.916218087e-39
800.2084016 307.4845907 -108.6486352 7.916218087e-39
745.9094154 205.4929628 0.8327346089 9.854155009e-39
823.3335126 125.7488766 -63.71078021 8.478409222e-39
803.004013 274.4876223 85.89584895 1.521081877e-38
759.7899108 132.6830669 55.10216449 1.263224323e-38
820.2229796 292.8400276 -150.2851252 1.347178916e-38
815.6735256 161.0580929 -2.863197909 1.336764606e-38
818.2008108 278.3084823 85.75954898 1.80678085e-38
824.4154595 340.1307451 102.1447626 6.087431106e-39
770.5647282 182.225464 106.1837608 1.318901274e-38
882.5973638 255.115415 -53.57916089 8.655936922e-39
868.7404378 276.3879923 9.072979852 5.990553738e-39
855.1717378 193.4062492 8.943151039 4.145185191e-39
854.6769225 320.9560118 33.19891492 6.268918875e-39
861.9244174 346.3687857 -2.3771808 9.679113213e-39
855.0353819 307.2314517 47.72047776 5.43808341e-39
898.0099454 347.6071463 -42.23254665 1.465981561e-38
866.4646474 331.7500503 20.59105635 1.677527883e-38
839.8903291 396.1343289 35.69873903 1.566317473e-38
862.4179003 290.4732181 81.16350802 1.696399309e-38
876.216337 346.9323614 0.8075786768 1.216547912e-38
852.197341 191.0712957 58.90217472 1.787946698e-38
872.3490544 308.3537275 58.18839113 1.704680843e-38
828.7014283 278.3685067 153.4897941 1.566857814e-38
881.7967895 384.608834 -12.56117304 1.022864782e-38
875.3813054 299.7861693 72.31570533 8.661680844e-39
844.6581048 171.9419082 14.8484858 1.051248643e-38
890.7825016 337.8151763 19.93345065 1.539559539e-38
882.9899065 401.152039 77.30559937 7.192346537e-39
898.4944865 355.7391703 -5.285174518 1.308921226e-38
894.4629789 324.5772431 32.57582285 1.705545865e-38
891.6093556 124.7289632 -52.45657007 1.253792043e-38
874.0005067 480.5870646 59.91132167 1.889215596e-38
904.2230467 330.6506937 34.12496566 1.539486111e-38
856.3595012 179.1461912 106.5595325 4.703065932e-39
908.8133054 264.2440443 -132.3938745 8.216328574e-39
935.5974073 289.7465153 82.48386895 1.512330769e-38
878.5763156 198.9235691 -36.89242088 8.194619658e-39
942.3095048 375.5765313 -21.88737523 7.928473844e-39
923.1114586 199.2825813 -141.1420817 1.087798571e-38
937.3419756 342.1018785 28.09422054 4.978212287e-39
912.4477823 99.01689284 81.87481054 2.582220324e-39
926.3198375 19.02796749 4.120551471 4.150274707e-39
977.8981009 104.9934193 58.52304517 2.951699289e-39
962.9925872 -7.925654886 -66.6801688 3.228291784e-39
962.9925872 -7.925654886 -66.6801688 3.228291784e-39
966.1469887 251.5572842 -129.9928678 1.346855216e-38
936.8899303 510.0543545 107.8629837 4.159303273e-39
965.7360909 6.360690559 -60.17087392 1.235565634e-38
965.7360909 6.360690559 -60.17087392 1.235565634e-38
939.6963082 511.2980746 108.1921926 1.632947814e-38
966.2505852 288.3439376 139.3330554 1.807217075e-38
971.0892474 247.9017752 45.59867386 1.770263713e-38
979.280381 309.8558125 90.86452358 5.532103531e-39
979.280381 309.8558125 90.86452358 5.532103531e-39
1013.680251 417.3008947 -64.56739201 1.659489108e-38
972.3329117 308.7555631 176.9531448 9.872537242e-39
937.4723164 213.7876645 39.75535335 8.121141172e-39
1000.540671 16.56360759 -16.62686087 5.261323622e-39
1003.851144 358.5557914 23.03710878 1.871680447e-38
996.1842952 469.3983681 21.9421213 1.522024391e-38
996.1842952 469.3983681 21.9421213 1.522024391e-38
986.2884641 277.4444348 148.3472496 1.945654012e-38
1002.989878 476.5373412 -0.9437315001 2.960392945e-39
962.0493605 155.3097091 67.30864902 5.71869623e-39
1057.954505 363.9334955 -114.0182105 6.274362919e-39
1027.369565 410.4145926 -42.34548453 8.218097013e-39
1006.243505 384.2643885 -55.3017842 5.16909296e-39
1010.351862 263.1282277 60.59574975 5.346947162e-39
993.6254678 354.1720733 63.84596027 2.676894851e-39
1023.42855 405.407193 29.19575356 3.413044579e-39
1015.860545 320.0261142 90.02141883 1.788812e-38
980.9832118 445.0098409 131.6759885 1.917959871e-38
1010.37718 334.2146092 128.1355346 1.964019991e-38
1015.131835 315.7735074 129.7384017 1.991750426e-38
1015.131835 315.7735074 129.7384017 1.991750426e-38
1029.444558 352.0013757 45.53782355 4.887462797e-39
1007.358203 285.1124617 182.0299542 1.236797796e-38
974.6002766 192.064644 47.37798674 5.721137292e-39
1037.19602 406.8204936 22.67699357 2.12337355e-39
1061.344564 323.5935729 9.023469953 1.761010519e-38
1035.402847 342.56964 56.11774037 1.687361775e-38
1056.332665 410.1295273 -40.41103936 1.613751006e-38
1058.410476 419.2860799 -51.45516515 1.595240414e-38
1054.194329 418.0681545 -36.66625339 3.981067918e-39
1015.396919 197.6512366 -52.45822244 1.106965811e-38
1024.892732 287.3721118 145.9716131 2.09316674e-38
1054.588512 427.2462153 -32.51928129 1.595385308e-38
