# .PCD v0.7 - Point Cloud Data file format
VERSION 0.7
FIELDS x y z rgb
SIZE 4 4 4 4
TYPE F F F F
COUNT 1 1 1 1
WIDTH 641
HEIGHT 1
VIEWPOINT 0 0 0 1 0 0 0
POINTS 641
DATA ascii
-133.5015521 340.0167878 46.47380089 6.364083856e-39
-105.1327129 306.4949876 43.01496195 1.290742181e-38
-118.9737479 333.8889811 46.47901213 1.161704033e-38
-118.9737479 333.8889811 46.47901213 1.161704033e-38
-103.1878115 321.1836233 43.01172883 1.253863929e-38
-108.2686965 317.3958471 44.72240888 1.355279402e-38
-110.6502509 331.7936583 46.81784715 1.760940174e-38
-110.6502509 331.7936583 46.81784715 1.760940174e-38
-73.70533086 273.1884462 39.72615682 8.66971589e-39
-62.04869466 257.3173848 38.04197328 3.230896798e-39
-94.4924061 313.3290042 44.79781518 1.180142878e-38
-63.69041904 266.0565681 39.16172586 1.263547602e-38
-105.3901474 335.2151446 47.78132673 1.7793793e-38
-106.0128935 340.6300962 48.49646158 1.161632146e-38
-94.73111803 321.9072053 46.22540665 1.290742742e-38
-94.73111803 321.9072053 46.22540665 1.290742742e-38
-91.37030622 311.9441249 45.53365303 1.207801567e-38
-58.75032453 264.6857292 39.35905907 1.254462704e-38
39.76001742 613.5625339 25.49473878 2.083142411e-38
-88.36456038 320.8389098 46.66248148 1.816257412e-38
-100.6668918 317.6520391 49.54682633 1.797818426e-38
-103.0836519 336.1785052 49.53832172 1.244609054e-38
-48.78453219 262.096825 39.60454116 7.105889224e-39
-48.78453219 262.096825 39.60454116 7.105889224e-39
-95.25235421 346.2143215 50.16857687 1.641085435e-38
-42.84164594 260.8450045 39.77325007 1.401830958e-38
-77.88448324 320.9248813 47.2148895 1.25375659e-38
-97.88259996 359.4683423 52.02719387 1.788668928e-38
-40.40882553 298.2593376 41.33746507 1.475519499e-38
-39.35985197 262.9109274 40.25667594 1.411122547e-38
-39.35985197 262.9109274 40.25667594 1.411122547e-38
-101.0059303 355.3091237 53.40619905 4.336829572e-39
206.4790656 693.7722186 0.2228373707 1.743177735e-38
-41.80542847 276.3224825 42.28760978 1.493953019e-38
-38.55740258 281.7202002 43.40002438 1.438855505e-38
-38.55740258 281.7202002 43.40002438 1.438855505e-38
-31.77182656 271.5170269 42.08546625 7.195659207e-39
-86.61306338 331.858084 54.98308711 1.742752441e-38
-22.11579835 262.2978873 41.23848993 8.39449947e-39
-22.11579835 262.2978873 41.23848993 8.39449947e-39
-86.93208501 346.3411284 54.92823977 1.74275188e-38
61.11588827 340.4762405 13.14602506 1.236109618e-38
-11.83241139 264.9419106 42.34427754 1.613702942e-38
-11.83241139 264.9419106 42.34427754 1.613702942e-38
-10.71711697 275.9190906 44.14424687 1.060761778e-38
-10.71711697 275.9190906 44.14424687 1.060761778e-38
-28.57292258 307.0233213 48.08118295 8.673313023e-39
-28.57292258 307.0233213 48.08118295 8.673313023e-39
-102.1615624 429.3009768 63.24596245 3.04468385e-39
-13.08628072 286.7923226 45.77532736 6.182241558e-39
-3.483528144 289.5715525 43.53661082 5.997123025e-39
109.0575851 864.0412289 31.13807365 2.951389602e-39
-1.658907633 270.8085171 43.8052139 7.567220501e-39
-19.12211263 302.2884074 47.90396532 5.906009197e-39
-5.716332124 280.5084985 45.19100473 6.182237355e-39
-0.008329002883 274.1986794 44.46445246 1.180614976e-38
-0.008329002883 274.1986794 44.46445246 1.180614976e-38
4.685008692 269.5151365 43.97950974 1.697000747e-38
-5.079080473 287.9797587 46.48043055 5.997843292e-39
3.800273389 279.4789488 45.5189463 5.995683891e-39
-0.4162775526 289.2770425 46.78173672 5.813096103e-39
-13.90537695 316.2571914 50.48036433 5.722698339e-39
-67.80130155 409.1603221 62.32354079 1.189871253e-38
3.286219428 295.9369445 48.24764583 1.58625781e-38
3.984796962 299.4000047 48.89535661 1.37460527e-38
0.3197414665 310.5069198 50.38214919 5.443960456e-39
0.3197414665 310.5069198 50.38214919 5.443960456e-39
16.65751345 286.1174287 47.3226252 5.907346036e-39
20.44506263 282.1917847 46.98049184 6.642493835e-39
20.44506263 282.1917847 46.98049184 6.642493835e-39
-25.91621984 366.4965853 57.8584198 3.970265308e-39
45.4319838 277.2857333 44.78769214 8.949398248e-39
34.92323991 329.998657 45.66973177 1.383366889e-38
28.77538206 282.4398873 47.41818295 1.291425454e-38
28.77538206 282.4398873 47.41818295 1.291425454e-38
-6.200602679 339.9161964 54.795998 8.303820045e-39
29.23431657 283.9857419 47.74184164 1.38364939e-38
29.23431657 283.9857419 47.74184164 1.38364939e-38
29.34836215 287.5262271 48.3111866 1.448216319e-38
23.11322025 298.7448809 49.76430056 1.724443075e-38
-25.07312254 381.6006826 60.24961686 9.136093242e-39
29.22484501 297.9270635 49.90582802 9.411843556e-39
21.86595507 310.7036414 51.51533372 7.659089628e-39
21.86595507 310.7036414 51.51533372 7.659089628e-39
45.4787963 273.246301 46.8311534 1.816675419e-38
45.4787963 273.246301 46.8311534 1.816675419e-38
246.2829583 540.7733956 16.75896167 2.074619854e-38
41.86798125 281.1819601 47.90753329 1.19912809e-38
-16.10368244 376.0105797 60.08821459 9.778220046e-39
-15.91219854 380.3355383 60.65229502 3.971693231e-39
29.58092329 305.8064973 51.25690186 1.457329524e-38
-22.26257417 390.853222 62.14415165 3.047566321e-39
39.58711324 291.898514 49.50776231 1.558778067e-38
-32.89013705 411.5849023 64.6339308 3.599654094e-39
-7.785295362 372.1988416 59.82773585 2.399296224e-39
-7.785295362 372.1988416 59.82773585 2.399296224e-39
3.637066699 183.5264006 58.04586957 1.346668143e-38
47.91248953 285.8744879 49.05712211 1.088493615e-38
-28.86534971 123.0099995 68.41104046 6.079173254e-39
33.92039599 311.5117329 52.39695153 1.577151052e-38
47.53669464 330.9764752 54.47343127 1.595731569e-38
52.60658806 263.8485156 54.7471439 1.899694085e-38
43.65741396 300.1758522 51.04183657 1.494134908e-38
33.19563488 320.7823442 53.70329636 1.512573333e-38
30.35528138 325.8205025 54.51502134 8.396256698e-39
55.45678502 293.2110908 50.49539602 8.119070053e-39
55.45678502 293.2110908 50.49539602 8.119070053e-39
62.69958128 286.6029416 49.81188391 1.576939596e-38
62.69958128 286.6029416 49.81188391 1.576939596e-38
-18.10760448 417.9824296 66.66784663 1.014302148e-38
-12.74449299 410.319917 65.68534268 3.874075977e-39
65.76352888 286.1587465 49.88997427 1.512789414e-38
56.13821761 302.2596987 51.95473876 6.920877189e-39
-17.07334285 421.2257216 67.26861912 4.058112709e-39
21.73114382 240.7254337 58.80824151 1.383403603e-38
56.71131911 255.2158374 53.47458771 7.288942244e-39
48.56660643 324.0428004 55.20761095 1.521793737e-38
59.51528668 307.7070968 53.0682577 1.567926584e-38
40.23871527 341.2850815 57.19519716 6.181874418e-39
73.97847047 285.839711 50.21963258 8.581791418e-39
74.2733995 278.0225905 50.58670549 9.044193286e-39
46.25417134 331.7212515 56.14490701 1.466438664e-38
77.81694457 283.1037489 50.01738581 1.623388296e-38
-15.06087112 433.9452775 69.357153 1.845018222e-39
-17.39484016 438.9165746 70.01580307 7.564077388e-39
250.9104866 719.5439809 23.87327453 8.210430509e-39
81.59624075 283.4650042 50.14054851 1.641682948e-38
-39.6160201 482.4848214 75.73729824 1.226822652e-38
-39.6160201 482.4848214 75.73729824 1.226822652e-38
-13.76578187 439.4083731 70.51398348 9.255940694e-40
81.74343038 288.736464 51.10424065 1.613916499e-38
61.02489413 322.60709 55.48893685 1.134482268e-38
-40.32433192 490.223642 76.99671848 9.87510302e-39
88.36623669 286.5664889 50.98403389 6.830421972e-39
88.36623669 286.5664889 50.98403389 6.830421972e-39
55.6740636 340.3851912 57.97399384 1.466654744e-38
64.17671835 327.9967679 56.3616056 8.855906417e-39
85.36419714 293.6412384 52.03822301 8.580631142e-39
89.13286399 288.2558625 51.25133224 6.274751079e-39
60.12999508 339.758535 58.17252262 1.42049303e-38
85.78922106 300.04012 52.99037293 8.304121324e-39
37.72439749 377.5128115 63.0204477 5.721975269e-39
-23.57646093 477.1043518 75.80039624 4.649998759e-40
41.5301477 373.4045907 62.49141176 1.005553281e-38
-18.37187776 469.3495621 75.09797348 8.119781913e-39
63.6814793 339.2035468 58.18601461 7.199613671e-39
38.90731672 379.6391678 63.4652885 8.764433857e-39
-28.48155732 490.641757 77.8455604 4.3440911e-39
87.35440238 305.8910227 53.98840021 9.499815673e-39
86.15662477 308.5255179 54.36558549 8.211980345e-39
74.27874229 327.7920175 56.96551407 8.394922662e-39
62.23684892 253.7375902 59.28472779 5.998159986e-39
63.92742129 348.6960342 59.64169874 1.484743546e-38
-17.19870104 480.2724685 76.7393195 1.201806812e-39
-17.19870104 480.2724685 76.7393195 1.201806812e-39
91.17400712 307.3863369 54.37134967 1.752287997e-38
96.04280617 303.7933337 54.03282373 8.57924666e-39
69.57253738 347.9958293 59.86567073 1.549486618e-38
23.51220995 423.5048656 69.69722788 7.19926755e-39
77.29221092 337.3961889 58.60529342 1.733698932e-38
102.1886442 298.3315044 53.44497558 6.643215504e-39
85.15642718 325.0527032 57.02833383 1.632498278e-38
77.96989534 341.8946318 59.16980528 1.531014141e-38
85.17660259 340.9809165 57.50394361 1.060856646e-38
43.70318801 403.451611 67.15405038 2.118731048e-39
86.23180345 334.2967593 58.44021887 9.040980109e-39
58.43850794 442.6480439 64.22854636 3.959395436e-39
47.67702215 398.7482231 67.42351002 2.761580923e-39
118.1039986 624.8255947 58.21341306 2.489643541e-39
-12.30017362 502.6573584 80.52911733 4.616367596e-39
50.30025954 411.1344023 69.05858088 1.38840778e-38
42.28079855 421.3560738 70.91411269 1.199996335e-39
85.78733709 357.7725225 62.12199777 1.448404794e-38
45.12370405 423.3129322 70.745894 1.078798451e-38
45.12370405 423.3129322 70.745894 1.078798451e-38
59.11339987 402.7985835 67.92999265 1.199629195e-39
54.6523172 413.356048 69.68155029 1.269957702e-38
102.6045465 286.4605071 58.53721787 1.512690622e-38
113.0173769 321.9877862 57.52513914 1.512689501e-38
91.07223669 357.2848901 62.24869416 7.19711936e-39
68.05297698 394.1392115 67.16704921 8.576079725e-39
127.1114413 301.8334537 54.95235257 1.503437148e-38
126.996483 302.067517 54.99079165 1.540314699e-38
49.93743417 427.011196 71.50203336 8.853307008e-39
49.93743417 427.011196 71.50203336 8.853307008e-39
58.25407222 414.9503809 69.9958306 6.796185448e-39
120.7292103 320.7570588 57.67911269 7.199860299e-39
120.7292103 320.7570588 57.67911269 7.199860299e-39
62.41973095 414.4090672 70.13741663 1.224220161e-38
110.0472529 340.4796535 60.38890513 1.47581181e-38
109.8360215 350.9571672 60.70125247 1.540556843e-38
48.87011085 441.7505311 73.45822325 9.230465088e-40
94.66781087 366.8062173 63.85105798 1.466619852e-38
124.37352 320.1804098 57.77768191 7.844253003e-39
62.94153386 418.1350485 70.69694949 7.717777409e-39
60.34413913 424.4495282 71.60656293 4.59753975e-39
94.98204469 370.4022343 64.440937 1.540558525e-38
65.42034301 418.3813925 70.9526719 1.159034979e-38
110.9320477 347.4762629 61.5507818 1.549594938e-38
110.9320477 347.4762629 61.5507818 1.549594938e-38
125.8992614 342.2614521 57.22064716 8.029623771e-39
108.1624264 355.4730746 62.74349163 9.042640647e-39
108.1624264 355.4730746 62.74349163 9.042640647e-39
58.91653137 434.8159316 73.2527031 1.661331815e-39
68.24882543 420.7715421 71.39421679 6.616108786e-39
135.7845685 315.2252523 57.38968528 2.13904399e-38
6.976382564 523.9889179 84.9249446 4.432322457e-39
114.3760041 352.7439914 62.51489587 1.641825881e-38
80.08672418 449.6563518 68.68768416 3.956511563e-39
63.13212518 435.5964974 73.48175663 8.669634614e-39
128.7710018 329.689112 59.8569063 1.623314728e-38
71.19190043 425.5097236 72.28936535 3.401148956e-39
69.07556825 415.0813743 72.35541493 5.144224116e-39
127.0050961 341.1554158 61.02704604 7.750290336e-39
135.3467277 332.1413779 59.72880234 8.121108942e-39
33.76347409 492.4464828 81.09822436 7.433902366e-40
125.980308 282.1797019 61.01145647 1.890438509e-38
145.7193841 316.6346879 58.02051578 7.657321189e-39
109.7397609 374.1384681 65.59207278 1.567853857e-38
121.0252126 356.9296051 63.49005009 7.289316391e-39
121.0252126 356.9296051 63.49005009 7.289316391e-39
145.7045183 320.2444835 58.57869444 7.286370861e-39
148.6111437 317.6549958 58.22352952 1.503508754e-38
143.3920324 325.8443353 59.42835271 7.659479189e-39
150.4246231 320.304853 58.74897678 1.512829491e-38
123.3426156 362.873527 64.47671204 1.549318602e-38
123.4899748 364.9766978 64.80290247 1.531017364e-38
75.27483026 443.557653 75.27827476 7.932079385e-39
117.6332168 378.7959046 66.69943197 7.198506645e-39
123.7778702 372.5322841 65.94925248 8.671386237e-39
144.2399384 343.3054008 62.10301449 1.5679647e-38
144.2399384 343.3054008 62.10301449 1.5679647e-38
50.63790472 491.0074517 81.77311632 6.733595051e-39
150.5139122 333.956708 60.91169592 1.549667105e-38
154.7243631 327.9331315 60.07773519 7.291048396e-39
154.7243631 327.9331315 60.07773519 7.291048396e-39
133.9892914 363.40955 64.94780085 1.623279135e-38
122.2817723 389.2250074 68.55133304 1.614169154e-38
162.6969195 330.1453447 60.82359413 1.844083556e-38
162.6969195 330.1453447 60.82359413 1.844083556e-38
176.4619927 321.5085758 59.82689844 1.088314529e-38
80.55807055 485.722669 81.88235278 3.962283512e-39
64.84322213 538.2766472 89.38570422 1.871538916e-38
61.03345927 554.4447718 91.85685948 1.816294406e-38
115.2091363 473.3202486 81.18264501 5.620001378e-39
107.3508586 489.8516759 83.04803056 4.238873204e-39
91.81860863 514.6926453 86.33934604 5.065747198e-39
90.20894635 516.5917881 86.81469492 4.697324812e-39
90.20894635 516.5917881 86.81469492 4.697324812e-39
75.96752822 545.0879514 91.0843 1.926928041e-38
98.24425517 517.0037 86.9396029 6.998977158e-39
112.6697084 493.8766605 83.92998543 1.52918979e-38
97.12471648 518.183623 87.41188011 6.906421394e-39
79.05534663 548.6809271 91.7298767 2.675856489e-39
79.05534663 548.6809271 91.7298767 2.675856489e-39
93.76798693 529.5905035 89.05357353 4.974281645e-39
104.1948422 512.9562327 86.85720992 1.483597003e-38
100.0911178 523.0084461 88.2322079 9.211314944e-39
138.1161907 465.7791114 80.41174073 1.142689113e-38
83.17470083 549.6087605 91.99845532 1.982208144e-38
83.17470083 549.6087605 91.99845532 1.982208144e-38
105.8059391 516.1796428 87.26143337 9.396420866e-39
109.1056063 256.3640085 78.13263131 9.119102498e-39
136.4723288 471.601526 81.07085045 6.449045983e-39
100.1821017 525.5395282 88.7782913 1.594232039e-38
103.7489893 521.5581705 88.15286198 1.640293421e-38
139.5292517 470.9318761 81.10905199 1.760615353e-38
139.5292517 470.9318761 81.10905199 1.760615353e-38
204.0641158 373.496778 67.68102335 5.993474044e-39
107.081447 521.775581 88.19784209 1.870746342e-38
109.30824 518.4945396 87.77439615 1.11467015e-38
104.2296504 526.2072844 88.84820194 9.765211793e-39
136.8768562 480.8223919 82.72129513 6.169942362e-39
210.0365679 370.5564102 67.38115305 1.92660322e-38
130.5078469 492.462145 84.17789591 6.631646384e-39
110.736603 521.8124643 88.38149147 1.179170657e-38
103.6469483 534.0746641 90.20267001 8.564879146e-39
225.6608422 419.3200146 66.70305772 6.176770889e-39
90.83982586 558.6865549 93.67638051 4.243553541e-39
127.523671 504.4632403 86.08789751 7.736550605e-39
134.0604479 496.2314343 84.97587447 7.645432573e-39
105.8670088 539.6823246 91.06825443 4.698408016e-39
215.7878774 373.2020509 67.93044443 1.641014108e-38
104.3515271 542.0399346 91.52285757 1.308964386e-38
152.2543368 471.561327 81.6295971 1.64958473e-38
123.1004831 516.1106695 87.79758168 1.225304626e-38
112.3088071 533.4484499 90.21550559 1.797351233e-38
92.15164828 564.3088298 94.60402655 1.899270333e-38
141.1982014 490.9952907 84.38286968 1.76922381e-38
126.685842 513.8746293 87.47358773 1.759822778e-38
97.55411846 560.1068366 94.14406055 4.425786801e-39
127.3291334 516.829637 88.12347334 1.501963822e-38
112.0745459 541.1683428 91.37075442 1.622217511e-38
97.65915429 565.5857761 95.04214332 7.468604121e-39
115.6324958 539.3494714 91.36258564 1.788312157e-38
101.3424194 560.8836008 94.37785268 1.788598302e-38
130.7898244 516.9312191 88.26493509 1.502072423e-38
101.2459521 564.4561449 94.8963105 7.652275114e-39
133.7317291 515.2747594 88.14672084 1.861779573e-38
117.9610226 545.6161231 92.25152689 4.144869899e-39
107.0451225 568.162878 95.71325201 8.666429845e-39
110.059912 567.1047682 95.56182029 1.83473199e-38
178.9468517 470.4999803 82.06090253 1.575935986e-38
123.9799207 552.224576 93.66514134 7.278812257e-39
153.3470795 508.5927038 87.53905099 1.917385058e-38
115.0728557 571.1368295 96.37379745 1.908488214e-38
104.5917206 587.243441 98.74719092 1.871612064e-38
158.1733263 511.0729023 88.06951237 1.566861457e-38
109.1669607 585.7549104 98.47698305 4.243550738e-39
169.2333408 497.4461839 86.17857737 1.935427476e-38
132.7534463 551.8722291 93.88977287 8.102075105e-39
144.007454 540.638318 92.30362071 1.797062425e-38
144.007454 540.638318 92.30362071 1.797062425e-38
204.0717486 452.2394138 79.63051576 1.446827352e-38
191.1975429 471.78843 82.39594765 1.787339376e-38
191.1975429 471.78843 82.39594765 1.787339376e-38
242.2954619 397.1840173 72.13862341 1.770156934e-38
140.6247689 548.5623208 93.7135403 1.087083768e-38
137.3921329 555.3402 94.50666432 1.824683699e-38
112.2429944 593.9900457 99.88221649 5.626132059e-39
249.2939513 424.8171918 71.81264746 1.880647777e-38
150.7412858 540.9339783 92.60736686 1.87082005e-38
142.8270182 556.9970584 94.92061946 2.018656337e-38
139.5133785 562.7145197 95.82917825 7.27521092e-39
170.5610837 518.0242994 89.4759437 1.437678835e-38
197.4423995 481.7226402 84.25843882 1.391761087e-38
170.4031775 522.2442092 90.13825846 1.861670692e-38
206.5237259 470.702865 82.60325615 7.006895896e-39
157.43772 542.0274438 93.41701313 1.216229116e-38
130.4417859 586.2200125 99.33906676 9.03520816e-39
145.8101431 565.1699072 96.36890109 8.015289889e-39
156.0462834 549.6929938 94.20846986 1.677134678e-38
159.6315465 551.9642493 94.54194587 1.050240268e-38
159.6315465 551.9642493 94.54194587 1.050240268e-38
211.7808338 476.7228431 83.73243277 1.345376006e-38
211.7808338 476.7228431 83.73243277 1.345376006e-38
177.5384935 525.2329674 90.94925974 9.397502668e-39
183.4890708 523.1025892 90.57950708 1.667735749e-38
187.0999866 518.3270313 89.92570603 1.123852999e-38
185.6053578 521.8507315 90.48179094 1.594087145e-38
185.6053578 521.8507315 90.48179094 1.594087145e-38
159.4825144 563.1885126 96.35367041 1.788311877e-38
174.7115495 540.71358 93.12182999 6.080271872e-39
170.2372449 548.0899976 94.28934046 9.585853997e-39
176.0244952 543.0564458 93.61868261 1.686715916e-38
189.6259716 523.8528005 90.84639669 1.345266284e-38
163.236695 565.7101216 96.50218522 1.345628099e-38
190.1972666 527.5399187 91.46640696 1.216264289e-38
190.1972666 527.5399187 91.46640696 1.216264289e-38
168.1946343 563.2886657 96.5083235 1.234740129e-38
266.2901731 419.5335406 75.92760109 1.807323573e-38
173.8732558 556.7278719 95.79786119 1.64029314e-38
198.2649906 528.7377175 91.83605224 5.250860126e-39
177.9675576 558.586626 96.17972521 9.398941801e-39
367.1923601 678.3582852 62.74213835 4.243529719e-39
272.9599395 423.0469657 76.68328272 1.429069958e-38
272.9599395 423.0469657 76.68328272 1.429069958e-38
171.0132038 576.0230977 98.50830029 1.631290639e-38
273.0494675 425.1732769 76.98979074 1.834658702e-38
186.8638094 552.4672218 95.35470437 1.51176044e-38
171.5805921 575.6161658 98.64803664 1.658949328e-38
155.1380338 600.5049653 102.2380812 1.963698673e-38
155.1380338 600.5049653 102.2380812 1.963698673e-38
188.1518363 552.9117167 95.45549029 1.539419129e-38
197.1685759 545.0876865 94.37483133 1.308497193e-38
203.9230254 544.920861 94.17514807 4.42433926e-39
163.2877408 605.0829055 103.1675581 1.871538075e-38
163.2877408 605.0829055 103.1675581 1.871538075e-38
210.256566 561.5086242 97.23876776 1.438075262e-38
210.256566 561.5086242 97.23876776 1.438075262e-38
233.5926789 530.1960224 92.42107035 7.740507872e-39
226.3166944 542.941646 94.6620718 1.207368706e-38
201.6816906 778.5059007 109.8578128 4.341907877e-39
213.8301416 561.8732021 97.44134109 3.133604645e-39
219.1108491 558.7622115 96.6917542 3.13540111e-39
243.8109628 527.1305348 92.27821559 7.833419565e-39
289.396542 672.6006859 86.56805411 1.244160778e-38
160.5227065 832.4239099 125.2602824 1.051208706e-38
210.3634441 599.5446744 103.4261174 1.134001623e-38
230.4191176 572.5215641 99.45240291 2.083690039e-38
219.7638776 589.7304504 102.0905275 5.171602685e-39
235.5018991 567.1375617 98.79288985 2.111312014e-38
235.5018991 567.1375617 98.79288985 2.111312014e-38
226.4994887 581.276286 100.8591639 2.065180287e-38
214.4190318 599.8764 103.5115741 1.880971196e-38
208.5210225 607.7946963 104.7932656 2.000786279e-38
238.3635057 576.2068464 98.15515036 1.502823379e-38
348.925056 633.1065873 71.17198625 1.760527211e-38
205.4900931 614.735315 105.8561877 1.585718451e-38
223.0652988 589.9072262 102.2439683 1.798571484e-38
223.0652988 589.9072262 102.2439683 1.798571484e-38
215.4797173 602.785283 104.1150358 9.221356648e-39
237.5216007 571.0062159 99.41079073 1.235347592e-38
222.0906227 594.7434152 102.9281245 2.019227927e-38
244.0119498 564.3655476 98.41181835 1.235708006e-38
244.0119498 564.3655476 98.41181835 1.235708006e-38
222.179783 598.4574796 103.5672563 8.667475213e-39
222.179783 598.4574796 103.5672563 8.667475213e-39
243.43894 568.8197353 99.24439657 1.982600227e-38
235.7065899 831.2956968 110.8321529 1.733387983e-38
240.4730398 575.7863527 100.2812031 2.037593345e-38
206.8980891 624.6963607 107.5705492 1.309104936e-38
257.1464662 553.7620714 96.98046571 8.669603786e-39
254.2367397 557.89134 97.69379467 2.203472891e-38
263.5154202 545.1976091 95.71545029 2.322444953e-38
248.7104467 566.5919783 98.96410126 2.056211977e-38
248.7104467 566.5919783 98.96410126 2.056211977e-38
260.5931948 551.5658392 96.655424 1.82528878e-38
239.9734065 580.843318 101.1232235 1.346197447e-38
254.2967191 561.8140706 98.29770891 1.042242217e-38
230.0697449 598.5591684 103.6787623 1.143260422e-38
230.0697449 598.5591684 103.6787623 1.143260422e-38
248.2954275 572.1480363 99.79009866 1.023874277e-38
213.2506262 622.2125779 107.3182055 1.429067996e-38
236.0902549 592.9996847 102.638733 1.982383867e-38
258.6280756 558.5103057 97.7829326 2.028408534e-38
224.1682806 603.6425694 105.2068844 2.019154359e-38
217.8204879 620.4071397 107.1241671 8.948027778e-39
209.2671815 633.1486771 109.0513818 1.116108863e-38
260.5956265 562.5377917 98.48432523 1.57018856e-39
259.1636168 565.903474 98.94055772 1.853527607e-38
234.1057419 602.4705216 104.4315807 2.000679079e-38
234.1339245 604.3811528 104.7759652 2.07439971e-38
320.0518861 605.1389026 84.68429195 2.083503806e-38
205.7573039 646.0601044 111.006102 2.028005661e-38
224.8778922 621.2744672 107.2115635 5.811986274e-39
269.2441702 563.9810364 98.65561584 2.767308029e-39
269.2441702 563.9810364 98.65561584 2.767308029e-39
212.7310256 643.5570949 110.7619898 1.95472798e-38
288.3535391 535.732511 94.62563117 2.349920492e-38
264.7989006 569.6863838 99.73154974 1.81671942e-38
283.6011268 543.2830708 95.77483754 2.858417653e-39
232.8451699 618.5293131 107.0218525 1.595417818e-38
224.3186068 630.8600207 108.8694649 1.77033616e-38
239.1501523 611.493147 105.967099 2.028668195e-39
251.2304806 594.2652672 103.51801 2.398529714e-39
251.2304806 594.2652672 103.51801 2.398529714e-39
310.5941255 511.6462799 90.98116177 3.043508161e-39
231.9767103 621.7719061 107.9905377 4.8925383e-39
329.4206513 483.6010362 87.42634256 2.350605447e-38
266.6589166 581.5713656 101.3926202 2.046884234e-38
196.1968681 499.0611641 109.0250655 8.483043316e-39
315.328905 517.4951899 91.99837457 3.598477003e-39
318.8214313 513.0612008 91.305251 2.267458421e-38
262.3349434 594.0848509 103.5209562 2.494653183e-39
290.337592 564.2310641 97.16945459 2.074471597e-38
290.7543866 555.0397636 97.61635598 2.046813048e-38
227.3598174 646.1565658 111.2623356 1.503583163e-38
237.4223869 631.1614599 109.1732303 1.96423523e-38
244.5428058 622.0816519 107.746763 1.853312087e-38
389.8277413 666.7483588 80.73815945 7.647876438e-39
278.489169 576.9346278 100.9486658 1.384362371e-39
400.0398146 755.4679177 78.85220647 2.123376353e-39
281.22275 572.4621668 100.4294239 3.873637371e-39
295.5777219 553.6629615 97.56246106 1.844978985e-39
312.8256932 530.9124986 94.06438763 4.055144758e-39
230.983522 647.8437264 111.6498515 8.211917287e-39
271.1221672 594.883813 103.7849542 9.132050496e-39
308.1113721 542.7000083 95.92433123 1.61225498e-38
285.0573022 753.2163268 107.3025728 1.88089945e-38
303.8034747 549.2064902 96.97290721 2.138757845e-38
277.0632523 588.9084375 102.8294191 2.000823273e-38
307.1145936 544.9828159 96.40337227 2.212041551e-38
275.3307215 592.8995722 103.4901496 5.626822899e-39
249.2170942 630.0656282 111.5251654 1.05095381e-38
239.066194 645.0403005 111.4853451 1.788813261e-38
344.0796699 499.1316793 89.29013262 2.35053328e-38
253.1361674 629.760101 109.117304 2.037630619e-38
312.8222312 545.6687309 96.35371644 1.419299685e-38
280.5089826 591.2812423 103.312509 4.988661769e-39
284.3686641 586.0702927 102.5292214 2.065181268e-38
333.2471834 516.9928068 92.06373157 2.175335519e-38
238.3626512 653.2023247 112.5939153 1.834982963e-38
263.5608754 619.1049786 107.4709669 1.99149595e-38
263.5608754 619.1049786 107.4709669 1.99149595e-38
321.5871585 540.701922 95.56671177 3.59595887e-39
321.5871585 540.701922 95.56671177 3.59595887e-39
293.1377991 582.3978198 101.8819 2.859135118e-39
399.0162348 686.3320917 81.98782889 5.07183584e-39
286.5451824 595.0653679 103.8853804 2.501550374e-39
240.2311296 659.8845429 113.8749657 1.816759357e-38
291.7674659 590.9186687 103.3582856 2.083800601e-38
245.190621 658.1234095 113.529544 1.724421355e-38
255.8270489 644.6790932 111.4596664 1.954728261e-38
284.7464668 604.1226651 105.4904626 2.000751246e-38
339.0835182 530.7978593 94.10540569 2.349991398e-38
291.0180244 598.1788024 104.5005128 3.788690658e-39
277.6705681 621.298538 107.9218105 2.031891181e-39
295.52448 599.7137954 104.7014141 1.881079377e-38
283.4140102 616.0042676 107.3433634 2.122649079e-39
321.5899897 563.3757052 99.21065653 1.493566822e-38
299.3748486 596.830153 104.2255078 2.065180007e-38
289.7565702 611.3326824 106.4291485 2.009899623e-38
273.8802337 635.4751811 110.0677043 2.028266302e-38
295.0010261 605.8446496 105.5858548 5.634772465e-39
282.5079653 623.3793148 108.2953578 1.945614916e-38
268.795126 642.555523 111.2896863 2.120847009e-39
303.2383379 595.9585871 104.0886393 1.253895458e-38
274.9021187 678.3590355 114.3660406 7.92880455e-39
271.6903484 642.5881895 111.1747244 2.950251748e-39
271.6903484 642.5881895 111.1747244 2.950251748e-39
339.9408253 550.1426654 97.03187922 2.304005967e-38
263.5066107 657.8695851 113.5180159 1.087943465e-38
305.1762786 599.8819963 104.7555139 2.02844749e-38
277.6860941 643.6374769 111.2645193 2.57966856e-39
288.007073 627.7168008 109.3485173 2.029024124e-39
273.5923063 650.6603828 112.4422735 1.973093538e-38
303.6603232 610.5090223 106.8108559 1.982275546e-38
262.7198386 669.990651 115.6191032 1.945255343e-38
295.4903807 633.270542 109.8277141 1.844019797e-38
272.4765485 664.9973105 114.8129615 1.410116275e-38
319.669569 601.2785315 104.809731 1.853347119e-38
357.325676 549.1408769 96.6971078 5.531698555e-39
300.3765035 631.5066375 109.3729733 2.581847579e-39
267.1465903 678.2030228 116.6770216 1.281479738e-38
356.2537601 556.0575274 97.79106328 2.331197883e-38
315.877921 611.8445665 106.6028229 1.788846192e-38
362.7447315 546.4051753 96.68432614 2.349600856e-38
332.8940651 589.993793 103.2149996 2.492517604e-39
372.4939526 535.3345287 94.70121957 2.349885179e-38
372.6126068 535.8180099 94.70843009 2.349921613e-38
320.9417668 611.0417552 106.407546 2.401402376e-39
287.8712824 656.9561194 113.5408309 1.216760208e-38
287.8712824 656.9561194 113.5408309 1.216760208e-38
317.2103971 616.1854041 107.2656585 8.21406828e-39
412.4794742 664.7512599 90.76648539 5.899046145e-39
308.5355196 631.001095 109.5166893 1.982385969e-38
344.8356454 581.6615402 101.8493765 2.056032331e-38
282.2302469 670.3608847 115.4319597 1.95443637e-38
321.5509078 618.8426684 107.5475338 1.650373941e-38
282.5999411 672.6685613 115.9890824 1.410375936e-38
282.5999411 672.6685613 115.9890824 1.410375936e-38
341.9363134 590.9231303 103.2700947 1.39233604e-38
373.8529028 546.5247882 96.52233525 3.685298653e-39
411.5177313 496.2402836 88.6459081 2.194135339e-38
411.5724121 496.6266222 88.64290021 2.258745007e-38
431.5716845 740.8704077 88.8686112 1.991641685e-38
304.7669821 653.1423895 112.9015211 1.825473471e-38
369.0567066 563.87106 99.10789139 2.102202312e-38
379.6496037 551.4931757 97.16549998 2.185142226e-38
362.6755159 579.0684634 101.2895128 1.493823119e-38
341.2967271 610.4955966 106.226218 1.042278791e-38
381.0091864 555.4560531 97.69608978 1.2815896e-38
363.1136541 581.151617 101.6301415 1.10688944e-38
335.9317561 620.4568645 107.8037917 1.337053554e-38
304.3262233 664.374869 114.638982 2.092587443e-38
288.5095876 687.6794672 118.1761586 1.538791487e-38
348.9173547 604.2398801 105.2908267 1.954583647e-38
303.2661158 669.1552746 115.3183967 1.179738604e-38
385.0401873 556.3815298 97.75851056 2.092839256e-38
345.6433625 611.1611495 106.3293423 2.028374763e-38
363.3288095 591.2552962 102.5768874 1.98241946e-38
387.2504977 554.9151549 97.54710533 1.143040138e-38
317.3026175 654.31897 112.9976082 1.89000761e-38
342.5100059 625.908909 108.3913423 1.568759236e-39
313.2414546 666.150069 114.7420091 1.770226999e-38
322.0764058 655.1713975 113.1139343 1.110995665e-39
387.7355891 563.8079112 98.94586609 1.80721189e-38
391.0459161 560.048825 98.32288936 2.046555349e-38
325.4210334 652.0909389 112.6151723 1.392147985e-38
351.837196 615.2646183 106.9743733 1.937904692e-39
325.5436705 652.7879662 112.7302324 1.189424799e-38
309.1301714 676.2135067 116.5049812 2.672557832e-39
216.7904372 569.6978495 133.9068299 1.622638742e-38
321.2819429 660.8293793 113.9829641 2.123344123e-39
395.8235696 557.6204467 97.92629648 2.110914185e-38
365.8547337 584.1501473 103.4157068 1.032805313e-38
330.0568849 654.2254466 113.0144104 2.032233098e-39
302.5960724 693.7311856 119.0045693 1.806815743e-38
323.2548608 668.1324311 115.1484958 1.410515225e-38
312.0914384 685.3659475 117.8666318 2.21130601e-38
404.9840614 558.3699944 97.88745077 8.394463036e-39
342.5695292 645.4650682 111.4115648 2.248292161e-38
330.6476141 585.6636653 111.3433613 2.22122398e-38
328.2987228 670.6325677 115.4998958 1.846402705e-39
362.7384294 622.9095896 108.0620032 4.331339284e-39
398.1093473 574.8778763 100.6331253 2.121574283e-39
398.1093473 574.8778763 100.6331253 2.121574283e-39
405.7059233 565.1283822 98.892465 2.00089586e-38
335.6757492 662.2841456 114.1765484 3.961493179e-39
377.9223072 578.225454 98.98328132 3.957897448e-39
382.2694039 598.8823025 104.2967052 2.083178565e-38
405.3617151 569.4526716 99.62300383 5.257992735e-39
387.9425002 594.4793687 103.4014352 2.214114632e-39
312.1635289 697.9061216 119.8234587 1.788485918e-38
355.1718222 643.3115768 111.1708338 2.118316264e-39
340.12955 664.7763762 114.5778527 1.569109561e-39
358.9606232 641.4797504 110.760721 1.844971979e-39
364.0584778 634.5830908 109.6960545 2.581442604e-39
404.4009281 583.0689822 101.5793719 2.037370678e-38
375.2144225 625.4681858 108.2024124 5.71716321e-39
409.7002565 580.8995349 101.0414222 3.135003141e-39
368.6451606 635.7292337 109.9283735 2.248293563e-38
372.7552996 632.0546131 109.1563757 1.926733681e-38
407.0562698 588.0509456 102.2139748 3.876484809e-39
339.7948194 685.9916314 117.8965361 2.229779607e-38
359.1951905 661.9357606 113.830425 2.239108472e-38
449.1756218 539.5818665 94.39321827 1.391453642e-38
394.5034645 617.7292964 106.5191009 2.285241319e-38
406.342707 601.8795971 104.6887136 2.303608418e-38
451.0155141 574.604598 99.76677465 1.401010357e-38
265.5453692 607.9964214 136.640446 7.916218087e-39
265.5453692 607.9964214 136.640446 7.916218087e-39
384.6741453 275.7865476 106.9801313 1.263224323e-38
456.2506402 321.3064585 96.77493968 1.318901274e-38
461.1645036 636.5105919 114.5933251 6.268918875e-39
428.6857176 678.9201513 121.9074707 9.679113213e-39
475.3771531 617.0322714 112.2021843 5.43808341e-39
453.7725959 655.9734756 118.5661161 1.677527883e-38
512.8330376 588.1415664 107.3443386 1.696399309e-38
438.2544659 682.2321156 123.4926841 1.216547912e-38
452.9341378 427.766431 115.8437103 1.787946698e-38
494.2779757 618.5397889 112.8404053 1.704680843e-38
509.891721 605.0044399 110.8069288 8.661680844e-39
501.3211939 451.6411496 95.65898228 2.137929538e-38
464.1294591 669.3813683 122.2945781 1.539559539e-38
442.1773339 700.1208788 127.8795615 1.308921226e-38
477.7107646 652.0474499 120.7724315 1.705545865e-38
484.3580349 660.1456435 121.8270498 1.539486111e-38
551.8150602 636.3952592 117.146519 1.512330769e-38
243.9611287 461.7196692 168.890863 1.087798571e-38
493.3152358 683.9431866 127.8025807 4.978212287e-39
479.7043792 301.3844904 125.1588441 2.582220324e-39
444.4259341 212.9224688 139.6844797 1.761332257e-38
501.431353 545.126082 134.3526194 1.770263713e-38
488.9415918 363.0607117 134.8238664 5.71869623e-39
539.7850996 578.2213769 136.5361918 5.346947162e-39
524.7939798 722.5425776 150.5954987 1.761010519e-38
561.2257756 240.5253402 130.3592517 3.783659997e-39
567.4013338 553.3647883 153.3115942 8.8522196e-39
567.4013338 553.3647883 153.3115942 8.8522196e-39
597.6715267 216.0542911 134.1972085 4.249279246e-39
606.3568411 437.8450562 134.8814094 7.741893756e-39
655.4118382 516.9925055 147.5732684 1.418875792e-38
512.2344886 537.2452948 159.7274477 3.876239582e-39
561.9071581 694.7925727 169.3018469 4.058429402e-39
590.3764636 278.8455093 154.3371909 1.391761227e-38
622.0531368 545.8102709 154.9653803 2.148187883e-38
500.2334173 551.9921565 166.6322873 9.502346418e-39
583.4293309 567.0423673 163.5565044 9.406476583e-39
634.7179822 533.6227714 154.4322821 3.970144796e-39
